ply
format ascii 1.0
element vertex 915
property float x
property float y
property float z
end_header
-861.808544152063 -483.139400952152 2133.05099779261
-861.889441226168 -482.328573508957 2133.25122507721
-864.093156263739 -482.703443063312 2138.70561119537
-861.831058286571 -480.583658900533 2133.10672223095
-863.803332732875 -480.825379695056 2137.98827278432
-861.942943152077 -478.933584592551 2133.38364699066
-862.856562532769 -478.584091937659 2135.64493430883
-861.763997451361 -477.122045204569 2132.94074083934
-863.879904353642 -477.435376281258 2138.17779419623
-862.201281640945 -475.651172823712 2134.02305718818
-864.338643724523 -475.971680617745 2139.31321398224
-861.686450737981 -473.655200522155 2132.74880598853
-863.998167799484 -474.067640263855 2138.47050649627
-862.049586797424 -472.142133936531 2133.64759927525
-864.173282963931 -472.446828405039 2138.90393173763
-862.247631929961 -470.537532588114 2134.13777817918
-864.296585829785 -470.79709768316 2139.20911703989
-863.845006612312 -469.692992931209 2138.09141925545
-864.421638056337 -469.147826448529 2139.51863216182
-861.940874622813 -466.945210602769 2133.37852720107
-864.24937661565 -467.337287867014 2139.09227013463
-862.156597390705 -465.349186346997 2133.91245978786
-864.348719019225 -465.673762188035 2139.3381512117
-862.182579792708 -463.650269485242 2133.97676848948
-864.161269401683 -463.855900400399 2138.87419712764
-862.145399333023 -461.917408193481 2133.88474362251
-864.127453490376 -462.120944186378 2138.79049981013
-862.127215062015 -460.194834612663 2133.8397359724
-864.263971450177 -460.47687564136 2139.12839361769
-863.44618288636 -459.18343503776 2137.10429589451
-864.346691457359 -458.803708161021 2139.33313281998
-862.245365500536 -456.831770912935 2134.13216856951
-864.251317955522 -457.036032037272 2139.09707511942
-864.045116075983 -456.068667096401 2138.58670755822
-864.67001009075 -455.539563326854 2140.13337451895
-862.521554816512 -453.550871900142 2134.81576111453
-864.461446215242 -453.712215897846 2139.61716081259
-862.15097097314 -451.643124932359 2133.89853391571
-864.32285906491 -451.922285424911 2139.27414557875
-863.930659961309 -450.859012163701 2138.3034187335
-864.398261972934 -450.244367928097 2139.4607743251
-862.379819702799 -448.336343287612 2134.46495439791
-864.406194735195 -448.53114127994 2139.48040860069
-864.20830167333 -447.569973948828 2138.99060608488
-864.76759233231 -447.000589992117 2140.37489904217
-862.111658894178 -444.771331192035 2133.80123310589
-864.314147726614 -445.049027550754 2139.25258425985
-864.075303302597 -444.067692160584 2138.66142356596
-864.642371994023 -443.500207559097 2140.06496782909
-864.031143883875 -442.328384142108 2138.55212516922
-864.696654888669 -441.810115127996 2140.19932270799
-863.898795524297 -440.544279733657 2138.22455148436
-864.630045972604 -440.058278443354 2140.03445985552
-862.523488401816 -438.129325148732 2134.8205469061
-864.38578578638 -438.216642774187 2139.42989467979
-864.150599250707 -437.238985118486 2138.84778757724
-864.50020629014 -436.557104990496 2139.7130953644
-863.675365888801 -435.282622045826 2137.67154373088
-864.444427778646 -434.811503248561 2139.5750387039
-862.459423892745 -432.956310135902 2134.66198168193
-864.630045972604 -433.187064961268 2140.03445985552
-864.18691069262 -432.106588901428 2138.93766154975
-864.533610988781 -431.421138429336 2139.79577489485
-863.935743407954 -430.264577476757 2138.31600070546
-864.476425229467 -429.675103322909 2139.65423517377
-864.100492390293 -428.629875876574 2138.72376874576
-864.784204665406 -428.109970852153 2140.41601600942
-864.248289469131 -426.986144474634 2139.08957935257
-864.609560052377 -426.305750659108 2139.98375542369
-864.135241162653 -425.213472082076 2138.8097749754
-864.701803831209 -424.633286586483 2140.21206678798
-864.352105556401 -423.602932981284 2139.34653318534
-864.914173937519 -423.019208337541 2140.73770124617
-864.368472332423 -421.893670345399 2139.38704237751
-864.828126595376 -421.258926701504 2140.52472660086
-864.240643876607 -420.114248227508 2139.07065584702
-864.788340827084 -419.521429138282 2140.42625336881
-864.241408065872 -418.397588461657 2139.07254728183
-864.703580166887 -417.762361042013 2140.21646337307
-864.525040031254 -416.817305959379 2139.77456103056
-864.943506493863 -416.15984998875 2140.81030187075
-864.197371464389 -414.942381899999 2138.96355286843
-864.854294972289 -414.398677764082 2140.58949560653
-864.553558435264 -413.395752846574 2139.8451465574
-864.966917279527 -412.73416858048 2140.86824559858
-864.339919277749 -411.576371982124 2139.31637108726
-864.767169045623 -410.92077939986 2140.37385137085
-864.378008160914 -409.877206291192 2139.41064438124
-864.80145660995 -409.218928272535 2140.45871607055
-864.505893787419 -408.220291339503 2139.72717241415
-865.030837336793 -407.608870231589 2141.02645329199
-864.495913869862 -406.498041931787 2139.7024712514
-864.737427818493 -405.752596804855 2140.30023925058
-864.271939620622 -404.675634211562 2139.1481155316
-864.82512469668 -404.075555041747 2140.51729664086
-864.541117131589 -403.08404375385 2139.81435325023
-864.93745131105 -402.409623728012 2140.79531476738
-864.469111317585 -401.332988096706 2139.63613260662
-864.917612112471 -400.682018906375 2140.74621102779
-864.529701916127 -399.643513494578 2139.78609960052
-864.767774541939 -398.894528101221 2140.37535002682
-864.54753915723 -397.934119611581 2139.83024832147
-864.880645110216 -397.22829106419 2140.6547144865
-864.69655546473 -396.284773360101 2140.19907662511
-864.983330053119 -395.556947648736 2140.90886863872
-864.444427778646 -394.451790297673 2139.5750387039
-864.901826083339 -393.801332547144 2140.70713923462
-864.585040303019 -392.798238780117 2139.9230669144
-865.109859342658 -392.177296224147 2141.22203961984
-864.687175301227 -391.126723875974 2140.17585990574
-865.080981953082 -390.445506068426 2141.15056557253
-866.532058688986 -390.239643703585 2144.74210652487
-864.757146100113 -388.581290161929 2140.34904371018
-864.47290370089 -387.594819379259 2139.64551908469
-864.90017841654 -386.927222118332 2140.70306111619
-864.839288767703 -386.040872597574 2140.55235394684
-865.077721314158 -385.287956044259 2141.142495208
-865.003919258234 -384.395813033704 2140.95982870963
-865.314340551471 -383.674178529368 2141.72814837154
-864.809620716501 -382.591309300631 2140.47892294335
-865.075200062563 -381.849457569836 2141.13625489132
-864.886462043198 -380.906991057037 2140.66911190085
-865.157160414997 -380.166784753243 2141.33911388213
-864.745198082365 -379.126744464219 2140.31947132853
-865.104011236026 -378.42468495552 2141.20756504799
-865.110722020311 -377.568241294519 2141.22417482195
-865.389559443946 -376.830280713008 2141.91432166343
-864.410604477548 -375.54531515104 2139.49132309601
-864.860579485815 -374.881677209706 2140.60505032334
-864.670926742302 -373.94052820946 2140.13564331116
-865.085622424543 -373.260515629634 2141.16205114244
-864.918101333464 -372.329047080695 2140.74742189224
-865.168148800253 -371.577251031783 2141.36631109002
-864.772275531825 -370.548186195835 2140.38649036772
-864.921071975912 -369.752753530313 2140.75477449031
-865.079431539503 -368.961103966238 2141.14672816427
-865.432103608948 -368.25182210161 2142.01962216692
-865.17599781776 -367.283401971396 2141.38573809006
-865.322530548144 -366.48601827568 2141.74841932463
-864.881655884663 -365.440145056078 2140.65721624105
-865.155765084461 -364.696541033366 2141.33566031787
-865.00742061709 -363.774731556092 2140.9684948769
-865.371442749077 -363.068181151677 2141.86948127013
-865.219200605016 -362.144820743384 2141.49266874083
-865.439349085251 -361.377260126841 2142.03755535006
-865.188697569935 -360.413140168492 2141.41717107971
-865.386460050394 -359.63586933635 2141.9066503952
-866.735534570271 -359.335522262578 2145.24572700362
-866.915045869152 -358.548773401808 2145.69003305952
-864.894827621126 -356.854063409023 2140.6898174328
-865.194264292582 -356.118148280134 2141.43094920176
-866.709050819069 -355.880674832477 2145.18017741919
-866.928119382882 -355.109442363402 2145.72239114148
-864.804818282215 -353.380624517648 2140.46703650138
-865.019616582737 -352.609107737626 2140.99868095114
-866.564196294775 -352.377903818075 2144.82164989046
-866.722196311747 -351.581172649249 2145.2127136553
-865.024980943461 -350.033412408084 2141.01195820984
-865.434783550235 -349.339538440904 2142.02625525437
-866.806280762063 -349.032090545808 2145.42082997286
-866.979625679961 -348.240654686587 2145.84987370025
-864.844467192915 -346.523908555427 2140.565170999
-865.045048642033 -345.74496313452 2141.06162750676
-865.198997894346 -344.947027372747 2141.44266527725
-865.316922773301 -344.134458945724 2141.73453959484
-865.044737162879 -343.166897754081 2141.0608565688
-865.377771143693 -342.439369283095 2141.88514459645
-866.411155024607 -341.987619498003 2144.44285945463
-866.654397490001 -341.222718923642 2145.04490568292
-866.468247235911 -340.288699375144 2144.58416763626
-866.536005284109 -339.45451502508 2144.75187469057
-865.34097388815 -338.126768694374 2141.79406819301
-865.482575823247 -337.322350229926 2142.14454528099
-866.822075092923 -336.983341677644 2145.45992231353
-866.897123549834 -336.151363564291 2145.6456737626
-865.322099602566 -334.681037065525 2141.7473526969
-865.411992497582 -333.856126531756 2141.96984541957
-864.772981637183 -332.750567102871 2140.38823803981
-865.182443843067 -332.048671071351 2141.40169256256
-865.396764213615 -331.271261837085 2141.93215409412
-865.612801993959 -330.494082515156 2142.46686636409
-865.417657824005 -329.559891689872 2141.98386759452
-865.511099533495 -328.735698346494 2142.21514394124
-866.496942264633 -328.249381812995 2144.65519032461
-866.585061243629 -327.421919602603 2144.87329245106
-865.00718106173 -325.966472655297 2140.96790195658
-865.140437886201 -325.157280024811 2141.29772417095
-865.075855038467 -324.273662450249 2141.13787601357
-865.279161052931 -323.490325204831 2141.64107605719
-865.324111346175 -322.647539016331 2141.75233193706
-865.460844194635 -321.838794687936 2142.09075761271
-865.171681421915 -320.871824038635 2141.37505463546
-865.272459237789 -320.049660317411 2141.62448848264
-866.741949863168 -319.732200469288 2145.26160541073
-867.074903530425 -318.993693311292 2146.08569465536
-865.25096755105 -317.463155426378 2141.57129469134
-865.585487365486 -316.726040945349 2142.39926028625
-866.682710778502 -316.266584776696 2145.11498353107
-866.960653581777 -315.506793763682 2145.80291610946
-865.125417758787 -313.979515733488 2141.26054805106
-865.401187280229 -313.219932904191 2141.94310156815
-866.72249621357 -312.837182037279 2145.21345593836
-866.881331652006 -312.033374478015 2145.60658744389
-866.480542920375 -311.028370911098 2144.61460052324
-866.604390724987 -310.211963871402 2144.92113459625
-865.702205704667 -309.029048631025 2142.68814831311
-865.785965609357 -308.198898392916 2142.89546135205
-866.662174738896 -307.649887335253 2145.06415504942
-866.863698046034 -306.860304039512 2145.56294273757
-866.589108423502 -305.902254536476 2144.88330957276
-866.804678528349 -305.117287952496 2145.41686430525
-865.186385043112 -303.688190496547 2141.41144737498
-865.280800401626 -302.861783006931 2141.64513358759
-866.813935960456 -302.537333270879 2145.43977725376
-867.030006175274 -301.751460833969 2145.97456980187
-866.730336040513 -300.786178919452 2145.23286019096
-866.895104244517 -299.982207595322 2145.64067580656
-865.360918257804 -298.591686930051 2141.84343224014
-865.465941730229 -297.768193102936 2142.10337445605
-866.857629193116 -297.385896118826 2145.5479217995
-867.119060940455 -296.614209202179 2146.1949880804
-867.052606153949 -295.730168910478 2146.03050671198
-867.150898603387 -294.902288193788 2146.27378906137
-865.221600432892 -293.386679568052 2141.49860852326
-865.39457165307 -292.585670970836 2141.92672731634
-865.059843680994 -291.613172445575 2141.09824651319
-865.341370716254 -290.84846739972 2141.79505037704
-866.550292259076 -290.393986825178 2144.78723619449
-866.760412366529 -289.603383283986 2145.30730171008
-866.597317009178 -288.688033678125 2144.90362653525
-866.915780765871 -287.93295067037 2145.69185199273
-866.764017524168 -287.021523288685 2145.31622478836
-867.040380600794 -286.25174251718 2146.00024740609
-866.638282085552 -285.258093836163 2145.00501865723
-866.842898956193 -284.464344570322 2145.51146318374
-866.792384728315 -283.58671805455 2145.38643608241
-867.098666166182 -282.825569585153 2146.14450924272
-866.755526888582 -281.852633180574 2145.29520972785
-866.997415529322 -281.07003745716 2145.89390512253
-866.988128260072 -280.205782492465 2145.87091832451
-867.386944770339 -279.473037470505 2146.85802382599
-865.442753701289 -277.986907938991 2142.04598207046
-865.663720158029 -277.197955563259 2142.59289324258
-866.697250169075 -276.66795152222 2145.15096978553
-866.969486641598 -275.893629491012 2145.8247786997
-865.499770267219 -274.566159511296 2142.18710302322
-865.737510621128 -273.781577078429 2142.77553104771
-866.94274369102 -273.301521963137 2145.7585875743
-867.407697739381 -272.586436624313 2146.90938922684
-866.666488097964 -271.492583810417 2145.07483098774
-866.883446488907 -270.699408199604 2145.6118218489
-866.511444824626 -269.722473601284 2144.69108542019
-866.6574351894 -268.907000961839 2145.05242425277
-866.918165246205 -268.126725798655 2145.69775378866
-867.350136061965 -267.398725105439 2146.76691907581
-866.751366998571 -266.353119325015 2145.28491363877
-867.046440020993 -265.582493339057 2146.01524499736
-866.811132632677 -264.649348690127 2145.43283877403
-867.216964446285 -263.911783254069 2146.43730776059
-866.96355640669 -262.973446291252 2145.81010085324
-867.373854018674 -262.236273316048 2146.82562307865
-866.926963182791 -261.239979808983 2145.71952944584
-867.281418669877 -260.485256018759 2146.59683756205
-866.758438835348 -259.467164687427 2145.302417049
-867.056014343302 -258.69493337356 2146.03894227664
-866.745269992079 -257.741216757291 2145.26982301815
-867.100878235915 -256.985606674329 2146.14998430744
-866.787648863101 -256.031728836948 2145.37471440468
-866.964926697544 -255.222872065381 2145.81349244212
-865.346429111205 -253.886794713666 2141.80757034388
-865.468110797005 -253.06276110029 2142.10874308471
-866.928983970516 -252.628734830661 2145.72453107097
-867.415525914804 -251.908847601508 2146.92876464092
-866.829627951594 -250.877608452567 2145.47861629473
-867.054698620516 -250.081438073742 2146.03568574847
-866.819564290255 -249.152542435192 2145.45370785885
-867.139270123456 -248.383042154699 2146.24500756357
-865.291835920523 -246.994304714775 2141.67244745534
-865.628371320434 -246.230474084238 2142.50540179937
-866.878192931794 -245.724854490107 2145.59881883876
-867.378756567038 -245.005111820138 2146.83775731165
-866.916156159539 -244.01327022851 2145.69278112467
-867.338987492785 -243.270693045126 2146.7393253988
-866.912033598682 -242.289772731536 2145.68257742848
-867.207715859524 -241.510949505035 2146.41441670508
-866.750997232503 -240.5227481529 2145.28399843563
-866.983776950623 -239.726104526887 2145.8601484557
-866.746574854774 -238.799512563051 2145.27305266666
-866.98157841088 -238.003021341161 2145.85470687888
-866.948809316086 -237.132820511747 2145.77360052316
-867.292947123153 -236.365404118313 2146.62537148519
-866.87030406217 -235.389093101227 2145.57929320126
-867.339899382607 -234.65501295834 2146.7415824053
-866.751116012072 -233.634711492114 2145.28429242538
-866.993045689097 -232.838675150741 2145.88308938844
-866.620264168796 -231.877682647984 2144.96042274835
-866.774478542975 -231.057913183323 2145.34211671848
-866.790520485238 -230.201141671771 2145.38182191888
-867.073542215613 -229.414977235918 2146.08232528296
-866.983990620042 -228.530043159018 2145.86067730606
-867.406557243134 -227.77976853835 2146.90656639957
-866.928276743686 -226.792988047465 2145.72278062314
-867.316342843945 -226.032937991571 2146.68327792615
-865.541679219077 -224.710632298745 2142.290831319
-865.836753588196 -223.927138665616 2143.02116601079
-867.091847395701 -223.390390281808 2146.12763219355
-867.601439321835 -222.659823949169 2147.38891647053
-866.749844065773 -221.580264486855 2145.28114424782
-867.148264381386 -220.820715428787 2146.26726913313
-867.005733467171 -219.923158066427 2145.91449274115
-867.545797680875 -219.198351690886 2147.25119857649
-867.005456819365 -218.200565175433 2145.9138080138
-867.433791882427 -217.446678048174 2146.97397449724
-866.869669880252 -216.444138530222 2145.57772354594
-867.259070480345 -215.679852630566 2146.54152385194
-866.852666548959 -214.717673896673 2145.53563882419
-867.368960169783 -213.983936341653 2146.81351037759
-867.111470194987 -213.059045703789 2146.17620032609
-867.610815539072 -212.319877767305 2147.41212342255
-866.753881600628 -211.249159262225 2145.29113749726
-867.319929021746 -210.525545141518 2146.69215402768
-866.956055200524 -209.576009354086 2145.79153471647
-867.403393767053 -208.822491315281 2146.89873652151
-867.134127070121 -207.896277695281 2146.23227805987
-867.73256122132 -207.177769238271 2147.71345456014
-867.071529322016 -206.158615835804 2146.07734319648
-867.644677754483 -205.432993701156 2147.49593534674
-866.863698046034 -204.386959909578 2145.56294273757
-867.043542988361 -203.568064109031 2146.00807458998
-867.203137333744 -202.744076599264 2146.40308445612
-867.567677602913 -201.967482889735 2147.30535328388
-867.041466430516 -200.983685177591 2146.00293492896
-867.548765088717 -200.239477971504 2147.25854316863
-866.926101304646 -199.234578021815 2145.71739622257
-867.398021799321 -198.481382172445 2146.8854404348
-866.874839594228 -197.500533982893 2145.59051903703
-867.353848686211 -196.748059424858 2146.77610814327
-866.899973243145 -195.783947047316 2145.65272700105
-867.327843606156 -195.018997288277 2146.7117433115
-867.043542988361 -194.093772993315 2146.00807458998
-867.740130730603 -193.387717875789 2147.73218975305
-866.978410761132 -192.356723704578 2145.84686667063
-867.413888949652 -191.591676277956 2146.92471300999
-867.138156311512 -190.669380133406 2146.24225078227
-867.791217602402 -189.950935627844 2147.85863419783
-867.186111763704 -188.957043113356 2146.36094469154
-867.881828213514 -188.246505549138 2148.08290333017
-867.037747652436 -187.20212818358 2145.99373063022
-867.516552137353 -186.443737796686 2147.1788133162
-867.163048724348 -185.50634612654 2146.30386166603
-867.792552632459 -184.778968414963 2147.86193851317
-867.000827229221 -183.74912965634 2145.9023493761
-867.504637565831 -182.994148228815 2147.14932371686
-866.740670321893 -181.971996256762 2145.25843843495
-867.295105769543 -181.226850757816 2146.63071432249
-866.889120511337 -180.280871752615 2145.62586554723
-867.169181443108 -179.477690068854 2146.31904067761
-866.865317298808 -178.553677270001 2145.56695052883
-867.524030486248 -177.82758005324 2147.19732287923
-866.92294607417 -176.843188640895 2145.7095867531
-867.566286128005 -176.112604792284 2147.30190926263
-867.282081722761 -175.193376245161 2146.59847867553
-867.691389906726 -174.414114881844 2147.61155198065
-866.785430331936 -173.370965712822 2145.36922334736
-867.376593229432 -172.627577722435 2146.83240286318
-867.103634019239 -171.711893775104 2146.15680511051
-867.452101933355 -170.919195574899 2147.01929346358
-866.995156945866 -169.967909886462 2145.88831493231
-867.488332670705 -169.202852260036 2147.10896768528
-867.301247068273 -168.304806185316 2146.64591457024
-868.111023567026 -167.599588381886 2148.65018173651
-867.244420625527 -166.570781208314 2146.50526418888
-867.919735513493 -165.838318693431 2148.17672719
-867.072439992881 -164.8150932619 2146.07959718597
-867.754986268927 -164.082827281825 2147.76895850066
-866.755133588181 -163.032753554391 2145.29423627519
-867.101847530353 -162.236611781431 2146.15238339536
-867.006429833875 -161.357496601104 2145.91621630922
-867.79195181353 -160.641646484457 2147.86045143414
-867.116395249844 -159.655219005076 2146.18839026462
-867.677288312064 -158.896563027623 2147.57664930909
-867.150898603387 -157.9387601587 2146.27378906137
-867.798634838134 -157.194686489006 2147.87699250048
-867.080707895202 -156.203303733309 2146.10006096231
-867.886885120851 -155.486398417883 2148.09541961504
-867.259070480345 -154.512408904702 2146.54152385194
-867.835827171849 -153.753078668828 2147.9690467567
-867.182534565998 -152.77589860479 2146.35209081653
-867.746793466353 -152.013309143066 2147.74868060272
-866.908361192753 -151.005266293532 2145.67348790485
-867.376731201975 -150.225220681299 2146.83274435721
-867.032289503669 -149.304277124596 2145.98022123796
-867.267385482987 -148.483239457477 2146.56210420567
-867.059287783012 -147.586296603665 2146.04704432423
-867.907326765553 -146.868488110039 2148.1460144611
-867.093219721798 -145.869375240891 2146.13102881983
-867.858991675312 -145.136090301664 2148.02638091469
-867.22472656752 -144.16854002605 2146.45651968481
-867.641234018623 -143.375887830201 2147.48741180139
-867.224214741348 -142.445497605214 2146.45525287058
-867.907549615017 -141.695580972532 2148.14656603288
-866.964880342019 -140.680458656092 2145.81337770816
-867.353848686211 -139.881968240095 2146.77610814327
-866.835494651262 -138.937278483724 2145.49313688595
-867.299027145583 -138.150020961517 2146.64042006878
-867.238425276066 -137.278875048851 2146.49042517824
-867.646424686498 -136.481560938626 2147.5002591552
-866.923931195406 -135.506731691355 2145.71202501372
-867.403654023385 -134.720059060419 2146.89938067854
-866.985919128278 -133.793936971057 2145.86545053145
-867.556804533697 -133.020227394537 2147.2784414932
-867.127683409987 -132.093048593932 2146.21632944139
-867.555429341262 -131.296401165193 2147.27503777249
-866.937430157348 -130.341678985486 2145.74543611696
-867.395826329656 -129.548948458485 2146.8800064567
-866.889169040495 -128.612131375847 2145.62598566111
-867.42284768911 -127.829632235744 2146.94688666824
-867.13390712782 -126.925662931136 2146.23173368358
-868.076338948945 -126.201285088144 2148.56433429428
-867.118317632145 -125.200634094646 2146.19314832778
-867.928163685371 -124.455387404644 2148.19758764741
-867.133057775692 -123.479986151978 2146.22963146329
-867.502904635783 -122.67089693606 2147.14503456448
-867.026245028818 -121.742211969456 2145.96526063772
-867.458755128792 -120.941230583901 2147.03576070014
-867.355245918622 -120.065190484025 2146.77956641484
-868.16258804433 -119.314537428272 2148.77780829639
-867.119840720148 -118.309854132146 2146.19691810287
-867.843342527284 -117.546475044924 2147.98764791414
-867.083697136733 -116.582244539752 2146.10745959473
-867.673319502404 -115.79959640258 2147.56682616048
-867.171728042667 -114.871227527257 2146.3253437327
-867.868399229079 -114.101394556377 2148.04966542734
-867.162390584073 -113.147156121457 2146.30223271169
-867.584463514617 -112.340391574541 2147.34689987326
-867.144063369004 -111.421966697007 2146.25687126261
-867.633390055658 -110.622956633275 2147.46799731177
-867.290032530603 -109.717634618956 2146.61815761549
-868.096317228015 -108.957289703924 2148.61378227016
-867.324809835106 -107.998876974872 2146.70423446466
-867.988398797455 -107.219268971766 2148.34667478145
-867.091405985101 -106.247120160895 2146.12653966398
-867.731547182814 -105.463575802845 2147.71094472677
-867.340248482465 -104.554423659597 2146.74244645777
-868.181248445312 -103.793373506142 2148.82399440954
-867.13128841822 -102.806461640542 2146.22525214987
-867.709868092111 -102.013096527488 2147.65728709437
-867.114098539511 -101.081685060004 2146.18270570707
-867.751830504432 -100.294024301905 2147.76114770945
-867.238046415745 -99.3731491633628 2146.48948746604
-867.953578416478 -98.5929357581617 2148.26049131426
-867.204328816794 -97.6463677800911 2146.40603348015
-868.159771526226 -96.8915416784737 2148.77083716946
-867.118452302026 -95.9139509569535 2146.19348164743
-867.652826640957 -95.1111548827833 2147.51610454852
-866.986152898306 -94.1768326530339 2145.86602913257
-867.691662142792 -93.3915259529383 2147.61222578856
-867.14390566076 -92.4711708507099 2146.25648092101
-867.671706237101 -91.6655316680078 2147.56283318874
-867.155276464875 -90.7495630483115 2146.28462464879
-867.814976919497 -89.9565365270405 2147.91744057121
-867.099604780544 -89.0210271279206 2146.14683239479
-867.874191736208 -88.2384259798007 2148.06400238558
-867.383831870813 -87.3269329293803 2146.8503191293
-867.728758099881 -86.4996797288375 2147.70404150427
-867.011771440954 -85.5669391680374 2145.92943725068
-867.474880221225 -84.7509165282516 2147.07567170443
-866.975789391433 -83.8409242601033 2145.84037855295
-867.557023089861 -83.0353232148662 2147.27898243869
-866.940796689781 -82.1151460361459 2145.75376857713
-867.392226938961 -81.2962591692639 2146.87109765211
-867.149420557239 -80.4120977943307 2146.27013076878
-867.96751060934 -79.6257435030543 2148.29497470165
-867.213662946741 -78.6951187193623 2146.42913626247
-867.825955300454 -77.8886046372942 2147.94461301759
-867.313933908334 -76.9810822026482 2146.67731560129
-868.0283716033 -76.1822167937338 2148.44561094769
-867.164107802748 -75.2449460148624 2146.30648297705
-867.635535628695 -74.4239651513335 2147.47330779139
-867.086675059171 -73.5155429987172 2146.1148302114
-867.642054738222 -72.7007368693046 2147.48944315368
-867.063692605206 -71.7909560250617 2146.05794664174
-867.782174185763 -70.9884117808907 2147.83625095619
-867.180662633751 -70.0777700776456 2146.34745762163
-868.12010678721 -69.2913189118071 2148.67266349538
-867.068778114163 -68.3460800528538 2146.0705337181
-867.621976300636 -67.5278117132405 2147.43974727677
-867.176436751902 -66.6317037571384 2146.33699819702
-867.909028864529 -65.8258353883843 2148.1502273039
-867.024127131766 -64.8974408504462 2145.96001865857
-867.659966960412 -64.0831224315553 2147.53377745933
-867.457248490547 -63.2064400124063 2147.03203163963
-868.003435287048 -62.383984664078 2148.38389139916
-867.070713820587 -61.4556231682777 2146.07532475962
-867.563341222285 -60.6287237171108 2147.29462036519
-867.015816655105 -59.7291889065183 2145.93944950704
-867.630113036815 -58.9096262405268 2147.45988640552
-866.923155816088 -58.0004462456501 2145.71010588257
-867.570178235704 -57.1819121603312 2147.31154256723
-867.302431695345 -56.3027085083743 2146.64884662513
-868.229405696711 -55.500407720236 2148.94318778937
-867.243356688869 -54.5758781692306 2146.50263085324
-867.970789868909 -53.759435456071 2148.3030911539
-866.996652184618 -52.8378477582074 2145.89201577809
-867.458357655093 -52.0042744666354 2147.03477691821
-866.963631299733 -51.1133957283266 2145.81028622002
-867.499535092966 -50.2832387341704 2147.13669465335
-867.100609054446 -49.3987597368591 2146.14931805992
-867.788808995395 -48.5759269968891 2147.85267268629
-866.973950863133 -47.6690838915928 2145.83582803573
-867.520187260695 -46.837345089459 2147.18781056219
-867.009681255747 -45.9485173563925 2145.92426386075
-867.532368976913 -45.1144332198399 2147.21796136785
-866.905537848731 -44.2206739126401 2145.66649988318
-867.455819527513 -43.3870349309016 2147.02849483201
-867.07239011419 -42.5065293158335 2146.07947373188
-867.645328976838 -41.6727195324568 2147.49754717863
-867.058813591197 -40.7832350297886 2146.0458706583
-867.64332812286 -39.9488334245664 2147.49259489125
-866.964584669055 -39.0563613360437 2145.8126458919
-867.430940320305 -38.2156864235427 2146.96691663332
-866.928212957509 -37.332353554148 2145.72262274682
-867.631732446296 -36.5007655860893 2147.46389458463
-867.127097411481 -35.6181536886047 2146.21487904419
-867.459778926361 -34.7701062596307 2147.03829468804
-866.847352205324 -33.8844542585561 2145.52248536212
-867.257686220921 -33.0389820102456 2146.53809768964
-866.949270721422 -32.1660270924887 2145.77474254144
-867.533467807077 -31.325916421711 2147.22068106795
-867.087476533696 -30.4484692106705 2146.11681393046
-867.687515796594 -29.6076011699026 2147.60196322159
-866.812324328505 -28.7166680101407 2145.43578832471
-867.220237268769 -27.8687070619665 2146.44540828049
-867.048704564056 -27.001890423125 2146.02084993813
-867.785328295154 -26.1627945168077 2147.84405765088
-867.264974293099 -25.2855872465711 2146.55613630127
-867.816257865273 -24.4395934344645 2147.92061102326
-866.927686266296 -23.5533852222873 2145.72131914032
-867.180738061764 -22.6988248575313 2146.34764431251
-866.873812989733 -21.8296603763184 2145.58797810175
-867.321456048392 -20.9793576823879 2146.69593355126
-866.836982952963 -20.1065449188479 2145.49682056193
-867.180318682175 -19.2530736326398 2146.34660631161
-866.908746239889 -18.3858789126102 2145.67444092995
-867.590235438104 -17.5384900486313 2147.3611858852
-867.03228950367 -16.6659230594803 2145.98022123796
-867.601228960311 -15.8150059175875 2147.38839580749
-867.181819423563 -14.945924188681 2146.35032077688
-867.524127226919 -14.0900472890425 2147.19756232079
-866.971692033488 -13.2198469972585 2145.83023723617
-867.483309079545 -12.3659122440804 2147.09653386085
-866.710449120661 -11.493926875606 2145.18363833708
-867.075178716631 -10.6374331381354 2146.08637576512
-866.900913896757 -9.77413771800959 2145.65505520044
-867.22542233219 -8.91631662025878 2146.4582417628
-866.856258168344 -8.05140793679297 2145.54452839411
-867.300743884801 -7.19398165500981 2146.64466914744
-866.875387955226 -6.32932131255491 2145.59187627813
-867.44859575912 -5.47180491582004 2147.01061537783
-866.897941331466 -4.60717687097947 2145.64769784316
-867.447542055832 -3.74839723948519 2147.00800737067
-867.042468149079 -2.88534871747534 2146.00541426941
-867.448910166917 -2.02499940359736 2147.01139356443
-866.761823578004 -1.162376108162 2145.31079458105
-867.208844467144 -0.30151218953042 2146.41721010697
-866.778172990181 0.559673127307601 2145.35126079619
-867.124939878353 1.42127708242713 2146.20953896231
-866.906274707542 2.28208150874577 2145.66832367274
-867.155627776664 3.14414845107162 2146.28549417598
-866.912535553778 4.00443609577917 2145.68381981094
-867.292034463389 4.86773511189274 2146.62311257301
-866.769193536997 5.72582729239652 2145.32903586967
-867.05352116351 6.58901464870101 2146.03277144011
-866.891226165941 7.44892920219816 2145.63107722526
-867.406928534581 8.31502064413131 2146.90748537815
-867.163406896345 9.17410449159387 2146.30474817283
-867.564978181204 10.0401700644003 2147.29867198069
-866.683082128475 10.8909051630526 2145.1159026545
-866.899587711426 11.7547820043603 2145.65177277656
-866.925337907755 12.6163129362332 2145.71550674896
-867.406347796817 13.4849726380566 2146.90604800175
-866.744957064405 14.3356930337568 2145.26904849498
-867.033384467689 15.201752634759 2145.98293136901
-866.655244748136 16.056036153157 2145.04700272039
-866.839838798893 16.9205528614443 2145.50388902864
-866.620264168796 17.7771455232259 2144.96042274835
-867.028142525772 18.6467963030772 2145.96995710749
-866.761560989481 19.502082128716 2145.31014465165
-867.098367713193 20.3710139132442 2146.14377054566
-866.91820593388 21.2279560017244 2145.69785449419
-867.310660009573 22.0991304420494 2146.66921241751
-866.943117463535 22.9509648668968 2145.75951269374
-867.409629774581 23.824977905358 2146.91417118176
-866.829121604274 24.670119387668 2145.47736304114
-867.203137333744 25.5422216748171 2146.40308445612
-866.584916261355 26.3848564660278 2144.87293360734
-866.870189174072 27.2546691394971 2145.57900884325
-866.755601480078 28.1120796251601 2145.29539434828
-866.923699185343 28.9787117959937 2145.71145076867
-865.47552707931 29.7900452228362 2142.12709902754
-865.676176413816 30.6568925453292 2142.62372355752
-866.705068813659 31.5542925069994 2145.17032160995
-867.134395766357 32.4313125363481 2146.23294310639
-867.088883647439 33.2909545901907 2146.12029665919
-867.498805820908 34.1684445545961 2147.13488964167
-866.957708686911 35.0083461206434 2145.79562723889
-867.301991213915 35.8838044131966 2146.64775639534
-866.577829620617 36.7146794725822 2144.85539355602
-866.876536857665 37.588468224554 2145.59471991145
-866.858327761787 38.4487938676217 2145.54965081763
-867.163566945739 39.3237509236951 2146.30514430898
-866.910482328594 40.1734411673473 2145.67873790028
-867.334275214096 41.0546681237478 2146.72766209976
-866.546666396109 41.878192812669 2144.77826186873
-866.916797785036 42.7572536920418 2145.6943692035
-866.607394686947 43.6028595374988 2144.92856966301
-866.813935960456 44.4743226510344 2145.43977725376
-866.954263385484 45.3427330477902 2145.78709981862
-867.254884757036 46.2199650348938 2146.53116382321
-866.753018296139 47.0542288765372 2145.28900074367
-866.942525463738 47.9257156728323 2145.75804744282
-865.635335863933 48.7133528384926 2142.52263964942
-865.798904943772 49.5826204366561 2142.92748732856
-866.737688265154 50.4973780967308 2145.25105758552
-867.207018176283 51.3861835134731 2146.41268987847
-865.814678295657 52.1637591532767 2142.96652774444
-866.037312553891 53.0374720906844 2143.51756687012
-866.628258696375 53.9345492110258 2144.98020989846
-866.845491742204 54.8091711476994 2145.51788055432
-866.622902631383 55.6559785543226 2144.96695317241
-866.747950134828 56.5250148728985 2145.27645660424
-866.802228064713 57.3896140872359 2145.41079919493
-866.925908688174 58.2589851244479 2145.71691948008
-866.944180424307 59.1214135061531 2145.76214361397
-867.191818408065 59.9997477081661 2146.37506913198
-866.979545719183 60.8462964868937 2145.84967579038
-867.116814011518 61.717302218296 2146.18942673613
-866.659934757557 62.5457018244262 2145.05861090105
-866.877225795 63.4225174083859 2145.59642509119
-866.692462920151 64.2699502154222 2145.13912092866
-867.042642001298 65.1572161922532 2146.00584456875
-866.964926697545 66.0125970771434 2145.81349244212
-867.181691198702 66.8905384234883 2146.35000340922
-866.836455320649 67.7250019401395 2145.49551462612
-867.305268884162 68.6231890249554 2146.65586891388
-866.865765846353 69.4495371260713 2145.56806072296
-867.19122268332 70.337057214307 2146.37359466149
-866.699251896047 71.1581111128191 2145.15592423365
-866.846338530076 72.031290576693 2145.51997642784
-865.411847467736 72.7717687004352 2141.9694864581
-865.527960696594 73.6413262172176 2142.25687678436
-866.503306009555 74.5850736183738 2144.67094114601
-866.546818057656 75.4496247164816 2144.77863724423
-867.035995546896 76.3535087528611 2145.98939401683
-867.324342914144 77.2404795251418 2146.70307879473
-865.616784026992 77.9482929625031 2142.4767222417
-865.740467652958 78.8194353519596 2142.78284995831
-865.204134178653 79.630078021289 2141.45537802701
-865.278424938237 80.4964612271218 2141.63925410939
-866.786149229832 81.4977676411491 2145.37100268209
-867.024290152324 82.3814384138992 2145.96042214861
-865.452861382184 83.0918461187718 2142.07099945856
-865.562636741646 83.9622137125391 2142.34270300759
-866.562302178307 84.9200054463968 2144.81696178769
-866.809293724886 85.8052762293641 2145.42828731753
-866.863698046034 86.6717822409903 2145.56294273757
-867.080707895202 87.5548156850891 2146.10006096231
-866.610782715979 88.3682335624298 2144.93695532913
-866.810952548001 89.2497130073649 2145.43239304881
-865.597003627429 89.9845830614857 2142.42776403479
-866.949584109839 90.9863986818674 2145.77551820499
-866.740511085335 91.825454626427 2145.25804431063
-867.068112355017 92.7214854244984 2146.06888590639
-866.702210339869 93.5433171566194 2145.16324663905
-866.848668626047 94.4202300334479 2145.52574361775
-866.75017154242 95.2705091464604 2145.28195478097
-867.05727159325 96.1655774681249 2146.04205407946
-866.458732945095 96.9599116270878 2144.56061894015
-866.811748747118 97.8604843244847 2145.43436371078
-866.748682867786 98.7143706588464 2145.27827018195
-867.043918917999 99.6092947820857 2146.00900504849
-865.247204961539 100.262396221862 2141.5619819555
-865.444521694442 101.144971491087 2142.05035800707
-866.687981533578 102.151241304677 2145.12802910766
-866.994916390029 103.048668737372 2145.88771953572
-866.54930777815 103.856513135605 2144.78479951869
-866.722082502904 104.738200163326 2145.21243196853
-866.66255396787 105.591927221961 2145.06509367407
-866.815608542809 106.471647764081 2145.44391704035
-865.470925043137 107.166216218077 2142.11570858831
-865.602113778545 108.042327866845 2142.44041210264
-866.827462952246 109.056357482217 2145.4732577333
-866.949982538656 109.932978035407 2145.77650435092
-865.058700035283 110.55248279752 2141.09541589072
-865.314071196137 111.444699814504 2141.72748169369
-865.044170373519 112.269252072655 2141.0594537159
-865.239275900365 113.154080608335 2141.54235684043
-864.851050872632 113.962430623013 2140.58146617812
-865.078215039233 114.851711195029 2141.14371722044
-866.796898115774 115.940945544456 2145.39760710838
-866.991965882891 116.828285359149 2145.8804167743
-865.196782622552 117.445846767149 2141.43718228716
-865.367637911035 118.328673851413 2141.86006396552
-865.522124065793 119.209585838416 2142.24243061619
-865.54716213094 120.072847091855 2142.30440200207
-865.060038344395 120.864599776384 2141.09872832201
-865.229559621193 121.747782204835 2141.51830820559
-866.606514922767 122.802400762989 2144.92639217026
-866.817045923427 123.693308235976 2145.44747468222
-866.590976057131 124.521898076907 2144.8879321282
-865.308888259518 125.197248779838 2141.7146534754
-866.728747719872 126.263667681486 2145.22892895943
-866.854704475066 127.143128466495 2145.54068286831
-865.370939871304 127.785139731337 2141.86823660397
-865.555007042408 128.672140558178 2142.32381883931
-866.708078189689 129.704520377414 2145.177770077
-865.283809745023 130.350927000275 2141.65258197387
-866.688908499353 131.423545411375 2145.13032342847
-866.928005831675 132.320986231288 2145.72211009239
-864.990903585805 132.884582524489 2140.92761378991
-865.268169361999 133.786713174081 2141.61387066747
-866.492659406961 134.836794295738 2144.64458987989
-866.67036486608 135.725375912665 2145.08442632554
-864.803457913637 136.292081899422 2140.463669471
-865.127346384096 137.202522060115 2141.2653215662
-865.35928077109 138.098931153074 2141.83937931831
-865.516901883905 138.983867887806 2142.22950526246
-865.119848630603 139.779497702873 2141.2467639751
-865.345949528398 140.675642215326 2141.80638333478
-866.829457465779 141.777896370556 2145.47819432753
-867.027953473313 142.671645916562 2145.96948918623
-865.188137911986 143.228355685433 2141.41578587768
-865.367806166602 144.117733587375 2141.86048041266
-866.43849672112 145.156743778799 2144.51053252822
-866.552609336929 146.036672879789 2144.79297116342
-866.520964909423 146.892120046434 2144.71464845692
-866.631119472828 147.771682883908 2144.98729056865
-864.984881541551 148.350232444883 2140.91270870735
-865.286611878134 149.261534956479 2141.6595174967
-866.742857176543 150.373737086492 2145.26385109014
-866.979998562572 151.276115503605 2145.8507966171
-865.317587524774 151.84563225611 2141.73618491247
-865.542419961949 152.744893789332 2142.29266472195
-865.045245606907 153.516470058369 2141.06211501193
-865.151505682244 154.394747342141 2141.32511792744
-865.172453328959 155.257926153616 2141.37696517243
-865.336970727272 156.147053246241 2141.78416002216
-866.647033915453 157.244354912243 2145.02668019637
-866.759602878889 158.125796547591 2145.30529815787
-866.694363049745 158.974846957423 2145.14382391443
-866.891120412315 159.872085281662 2145.63081547585
-864.956716841185 160.374568711476 2140.84299862774
-865.297990517717 161.29741062988 2141.68768061794
-865.197406926979 162.138126454113 2141.43872749484
-866.80149633173 163.29979180332 2145.40898809224
-865.045341078997 163.828257748827 2141.06235131364
-865.189712593521 164.715057466754 2141.41968335125
-865.008533647274 165.539842234086 2140.97124972328
-865.251002071468 166.445762829349 2141.57138013237
-865.101399872336 167.276354215417 2141.20110169605
-865.358843866288 168.185759344221 2141.83829794098
-864.813592499748 168.938871697738 2140.48875345184
-865.220921581148 169.877930919621 2141.49692830623
-864.808864774234 170.656106788725 2140.47705192058
-865.144932198926 171.581837444848 2141.3088479853
-864.833399943164 172.379155793253 2140.53777859464
-865.228029191918 173.317309258507 2141.51452026021
-864.948434115915 174.120520407416 2140.82249816331
-865.11389103797 175.013210434955 2141.2320184159
-865.145048128924 175.878926814012 2141.30913492211
-865.276894598539 176.765274678301 2141.63546638572
-864.784978606761 177.523837969583 2140.41793158149
-865.134476833267 178.454986053925 2141.2829700472
-866.381587730615 179.572874571453 2144.36967783398
-866.63323055831 180.485923586979 2144.99251568857
-865.206214983186 181.048205899794 2141.46052819896
-865.364132601597 181.940881764419 2141.85138802021
-864.802785640047 182.681933096331 2140.46200553547
-865.167811433394 183.618477451819 2141.36547607774
-864.327037013948 184.298636778073 2139.28448636548
-864.827304496566 185.264405398439 2140.5226918349
-864.337769922517 186.018148024805 2139.31105124638
-864.967737903414 187.012963501332 2140.87027671397
-864.709056617922 187.816014704772 2140.23001806503
-864.87260614859 188.710680529661 2140.63481735827
-864.891615291598 189.573989746899 2140.68186663822
-865.19240343138 190.499379258612 2141.42634340866
-864.526435291829 191.211544141798 2139.77801442166
-864.924104527792 192.158692389193 2140.7622803196
-864.720462825467 192.972441167475 2140.25824941937
-865.125417758788 193.922205351749 2141.26054805106
-864.408421539764 194.620168579046 2139.4859201354
-864.902430229404 195.590566107459 2140.70863454861
-864.014968855655 196.248164705106 2138.51209056952
-864.686097319488 197.259558930897 2140.17319180731
-864.517112861551 198.079798257101 2139.75494059704
-864.99653992811 199.04891124572 2140.94156422665
-864.589355712074 199.814073205002 2139.93374792662
-865.102706373395 200.792084194176 2141.20433539965
-864.65289679815 201.546606868602 2140.09101763342
-865.035307945589 202.495049407623 2141.03751843704
-864.724860479832 203.281373014475 2140.26913399588
-865.096262529655 204.228047817169 2141.18838632672
-864.594543102 204.968470561277 2139.94658716723
-865.04667590593 205.934972739176 2141.06565512624
-864.573360208016 206.681139506169 2139.89415766481
-865.070695838733 207.659369810286 2141.12510654614
-866.449188494849 208.850984392323 2144.53699559682
-866.724841383244 209.778411025929 2145.21926043699
-864.304135216271 210.051091487914 2139.22780242713
-864.690365486281 211.003918303782 2140.18375589083
-864.683094384532 211.861098373456 2140.16575928248
-864.927200944812 212.780105231218 2140.76994422066
-864.220511928945 213.464748050107 2139.02082752803
-864.614329174627 214.420908022086 2139.99555941547
-864.365150404475 215.217751224784 2139.37882031731
-864.700778635083 216.160291042373 2140.20952933853
-864.337482063253 216.928084220692 2139.3103387697
-864.908274877057 217.930517668227 2140.72310055917
-864.135241162652 218.594146897549 2138.8097749754
-864.507567291125 219.547111608601 2139.73131448117
-864.226155440985 220.334145777209 2139.03479571049
-864.810723985966 221.342262482582 2140.48165363109
-864.214140924287 222.048059751868 2139.00505873816
-864.816298339145 223.061862606662 2140.49545063936
-864.412744832128 223.816459970148 2139.49662065949
-864.953804538378 224.815776145711 2140.83579042535
-864.333095111797 225.513050218188 2139.29948068383
-864.841335197219 226.504766656118 2140.55741903763
-864.380260590819 227.242663267515 2139.41621934089
-864.901205858218 228.238789074829 2140.70560412358
-864.324613798586 228.94523046628 2139.278488697
-864.708224851718 229.905822007199 2140.22795937143
-863.859755883891 230.538370324761 2138.12792498363
-864.673861302201 231.614575958567 2140.14290660179
-864.273729414498 232.365942955826 2139.1525454269
-864.705446679752 233.340989701523 2140.22108315452
-863.985858323285 234.005070361855 2138.44003947356
-864.69085054572 235.054975104939 2140.18495645507
-862.718139868291 235.375721779382 2135.30232619177
-864.478293766948 236.714696182704 2139.65885996633
-863.945082384389 237.426911497165 2138.33911548326
-864.616665419252 238.470362415424 2140.00134182383
-863.957801195689 239.146874632936 2138.3705956459
-864.769771636666 240.230671689575 2140.38029300973
-864.115301233813 240.907251956789 2138.76042191967
-864.873390507781 241.977743563059 2140.63675871539
-863.89667159928 242.562646401852 2138.21929458547
-864.751034661999 243.661554098878 2140.33391737005
-864.102783432084 244.337273774713 2138.72943927318
-864.821410511883 245.399567519348 2140.5081037109
-863.882559562726 245.991320665602 2138.18436606933
-864.761671714384 247.100681065001 2140.36024499857
-864.07744379728 247.763519611642 2138.66672147621
-864.500911835198 248.743717240488 2139.7148416497
-863.952834794892 249.444247442948 2138.35830337258
-864.496858921657 250.460089852802 2139.70481033668
-864.009042773509 251.177045649465 2138.49742300151
-864.657551744025 252.224503434271 2140.10253902876
-862.354503724979 252.409335170034 2134.40229515403
-864.409633239414 253.869549955134 2139.48891919728
-863.317556455842 254.406414445363 2136.78593430734
-864.184696157461 255.520406473224 2138.93218038289
-862.18883258673 255.786750160831 2133.99224469776
-864.14892379639 257.226676874133 2138.84364068229
-863.400424097505 257.861555105245 2136.99103891779
-864.340335388915 259.00088114689 2139.31740099854
-862.357667105328 259.263415975909 2134.41012479514
-864.291569025988 260.703399134507 2139.19670001477
-863.89698318791 261.442550430748 2138.2200657944
-864.382572756454 262.448161044015 2139.42194215166
-863.567489562309 263.058527575455 2137.40454045339
-864.352731475711 264.156352901132 2139.34808239
-863.776354011556 264.838258823499 2137.92149810586
-864.570440808032 265.940572381668 2139.88693189629
-863.522898565323 266.476151830076 2137.29417386297
-864.387451140868 267.601606429529 2139.43401657678
-862.222623713154 267.787917998623 2134.07588067053
-864.147219361641 269.244078328707 2138.83942205825
-861.951459419849 269.416181854764 2133.40472549306
-864.025101091775 270.922631191542 2138.53716873394
-861.867734795841 271.102327786179 2133.19749977687
-864.337276102095 272.737738107857 2139.30982899795
-863.835100161908 273.437390755772 2138.06689993029
-864.198787722893 274.410985291353 2138.96705823124
-861.96646036998 274.558405111306 2133.44185414752
-864.415362268098 276.197131541693 2139.50309904086
-861.945967372303 276.264348344944 2133.39113219838
-863.913230004803 277.75306998011 2138.2602780773
-862.140989338403 278.039713536627 2133.8738285028
-864.277524237908 279.587295668454 2139.16193794443
-862.073591666184 279.730702182432 2133.70701341034
-864.089393906176 281.243166147671 2138.69629903363
-863.587208504851 281.937580977699 2137.45334654883
-864.25260121887 283.013340223397 2139.10025130766
-861.939727375569 283.112181873618 2133.3756876645
-864.323519447716 284.753757911034 2139.27578008355
-861.824990632945 284.786725943185 2133.09170426123
-864.258889264359 286.449531294669 2139.11581476639
-861.897662260208 286.523114808949 2133.27157285048
-863.987647973805 288.076158304413 2138.44446901403
-861.881731980401 288.230162219173 2133.23214402436
-863.943763656235 289.77796602056 2138.33585151654
-863.484219353821 290.481592339349 2137.19843945508
-864.18338311985 291.575253466009 2138.92893050076
-861.901645419076 291.661587107589 2133.28143151463
-863.918686790311 293.202335069781 2138.27378409537
-861.745731154405 293.320899752383 2132.89553016788
-862.343071350901 294.38085219302 2134.37399903525
-861.734107936413 295.028993309835 2132.86676169384
-862.582540756501 296.1763361314 2134.96670661284
-861.873199452019 296.7889398087 2133.21102527554
-862.407875240326 297.82975145457 2134.53439429001
-861.89465134797 298.508695667773 2133.26412058118
-864.014476257606 300.101166271967 2138.51087134657
