ply
format ascii 1.0
element vertex 924
property float x
property float y
property float z
end_header
-864.492966378933 -105.928726133274 2139.69517595535
-864.962282397864 -105.127001009046 2140.85677386391
-864.530272281631 -104.215692184043 2139.78751130468
-865.19060814657 -103.435834517474 2141.42189992283
-864.962341390429 -102.549312841518 2140.85691987563
-865.281611416348 -101.727616332129 2141.64714091947
-865.130912866853 -100.850500086866 2141.27414892079
-865.518779515082 -100.035930152956 2142.2341525627
-864.288069819026 -99.0351237900692 2139.18803917362
-864.927200944812 -98.2491622579841 2140.76994422066
-864.777217957224 -97.3730774472812 2140.39872329985
-865.157511757928 -96.5564725045609 2141.3399834864
-865.008009051644 -95.6805100125506 2140.96995130353
-865.275678365837 -94.8505744860715 2141.63245610415
-864.747011746732 -93.9336047527805 2140.32396030537
-865.212766770935 -93.1247170949578 2141.47674444268
-864.508195298411 -92.1901019051304 2139.73286885375
-864.674384497145 -91.3488783890105 2140.14420155471
-864.33691721722 -90.4546160218914 2139.30894072671
-864.846138425197 -89.6487907107567 2140.56930744405
-864.701726872703 -88.7748483116617 2140.211876309
-865.147239624892 -87.9611715524701 2141.31455906497
-864.551586294095 -87.0417865957391 2139.84026533672
-865.172241180102 -86.2448329317042 2141.37644008559
-864.901250706919 -85.3586481099334 2140.70571512801
-865.032615710117 -84.5123111686727 2141.03085492042
-864.955069695683 -83.6455104907277 2140.83892179956
-865.292056774415 -82.8185395279518 2141.6729940879
-864.957879811752 -81.9273275488413 2140.8458770809
-865.318887590455 -81.1019356235979 2141.73940268795
-866.727996722466 -80.3730185147841 2145.22707017562
-864.981962298196 -79.3518547904777 2140.9054833265
-864.782668566732 -78.4745186532946 2140.41221403178
-865.038131998059 -77.6383935602082 2141.04450821219
-864.870155365404 -76.7641772164103 2140.62875145702
-865.205969293075 -75.9345096084496 2141.45992009459
-864.375957770053 -75.0030146470812 2139.40556948578
-864.820318744621 -74.1824817234769 2140.5054014921
-864.727274211412 -73.3155022882971 2140.27510819117
-865.144314132777 -72.4914482790011 2141.3073182179
-864.876898823071 -71.6098943365282 2140.64544210044
-865.234788263295 -70.7800243696158 2141.53124954891
-864.303224559205 -69.845241318081 2139.2255484718
-864.778597931632 -69.0246074810405 2140.40213885636
-864.358318301294 -68.1324299849166 2139.36191026855
-864.989102096857 -67.3228927066294 2140.9231549483
-864.548188755688 -66.4297556477779 2139.83185613408
-864.960230772557 -65.6021862600308 2140.85169591308
-864.352885489935 -64.6974963033187 2139.34846358858
-864.868741588901 -63.8769697403769 2140.62525223738
-864.523968673512 -62.992709393269 2139.77190932709
-864.978521990442 -62.1665821319748 2140.896968266
-864.865120057776 -61.2992966576609 2140.61628863331
-865.115122364413 -60.457632595944 2141.23506605579
-864.851233719148 -59.5800696164177 2140.58191873913
-865.166640573985 -58.7423634405633 2141.36257809901
-864.862306016513 -57.8625675799129 2140.60932363677
-865.200307461078 -57.0257129895141 2141.44590656865
-864.285773968983 -56.1068760116236 2139.18235674536
-864.881402427404 -55.2863910729352 2140.65658891232
-864.69893328818 -54.4157568601933 2140.20496194467
-864.994729369444 -53.5751074415781 2140.9370829367
-864.59116645376 -52.6912489351192 2139.93822966956
-865.095029793713 -51.8625925637829 2141.1853351982
-864.630045972604 -50.9758150202264 2140.03445985552
-865.109705618819 -50.1447160478503 2141.22165913998
-866.144323426807 -49.344280102701 2143.78242807484
-866.487024366226 -48.503057429482 2144.63064266465
-864.783887129999 -47.548666972816 2140.4152300817
-865.180773702502 -46.7110403397355 2141.3975588196
-864.340052563313 -45.8070362599741 2139.31670098061
-864.876726270117 -44.9763313808356 2140.64501501689
-864.467625694356 -44.0963165130163 2139.6324555601
-864.8341762866 -43.2559097204767 2140.53970011208
-864.766252128031 -42.3934754081867 2140.37158192017
-865.220576397568 -41.5562594642735 2141.49607394689
-864.312328405494 -40.6540505395573 2139.24808128207
-864.844577803756 -39.8199707840425 2140.56544477045
-864.393959627091 -38.940555843785 2139.45012564547
-864.848522400071 -38.1019149763105 2140.57520798892
-864.251800200537 -37.2170997351965 2139.09826871772
-864.936163563254 -36.3873645609289 2140.79212747974
-864.549768864121 -35.5122872192256 2139.83576703969
-865.111092689658 -34.6759646383076 2141.22509226078
-864.840773120836 -33.8060184912534 2140.55602784977
-865.20342135767 -32.9607228942532 2141.45361373317
-864.839383901093 -32.0877449150686 2140.55258941024
-865.193375880429 -31.2414176365534 2141.42875030452
-864.086709933721 -30.3430948950444 2138.68965596869
-864.752559363214 -29.507453342547 2140.33769113799
-864.732021229858 -28.647749546746 2140.28685747412
-865.114916708305 -27.8010511662094 2141.23455703906
-864.176922674002 -26.9124565314576 2138.91294033617
-864.995527529835 -26.0786850236117 2140.93905845299
-864.884283600408 -25.2161769002509 2140.66372006574
-865.25991886775 -24.3676013679252 2141.59344997762
-864.775480932761 -23.4949123852777 2140.39442401343
-865.040642872226 -22.642806955203 2141.05072284383
-864.260631039621 -21.76385509576 2139.12012581144
-865.036799677093 -20.9240948696665 2141.04121060208
-864.237066439929 -20.0462390722094 2139.06180138054
-864.830352735956 -19.2008998616004 2140.53023649214
-864.374041723938 -18.3321215009891 2139.40082710523
-864.972242244478 -17.4855668532122 2140.88142534932
-864.969945907878 -16.6262810990761 2140.87574171679
-865.19443860151 -15.7711339145332 2141.43138063149
-864.577004069331 -14.9010300592864 2139.90317653805
-864.995179753284 -14.0489729392041 2140.93819767582
-864.301156856061 -13.1791258678712 2139.22043072693
-865.039968337638 -12.3310825973534 2141.04905331214
-864.043525108849 -11.458559320495 2138.58276977638
-864.618794115947 -10.6072977731835 2140.00661053303
-864.230159782334 -9.74402548937209 2139.04470680312
-864.954225161695 -8.89296546776983 2140.83683150459
-864.382572756454 -8.02843221253564 2139.42194215166
-864.754992807856 -7.1728654658737 2140.34371412483
-863.744400900345 -6.30646102217046 2137.84241138038
-864.483794674943 -5.45310315847541 2139.67247519138
-864.692494031253 -4.59545589979329 2140.1890242245
-865.15281667469 -3.73848131734923 2141.3283627476
-864.194149418583 -2.87587006666191 2138.95557802521
-864.867496837146 -2.01897327296079 2140.62217136868
-864.447430674928 -1.15927237776888 2139.58247113301
-865.022019957162 -0.300751871816492 2141.00462951158
-864.388607003084 0.55813019981983 2139.43687743616
-865.064664242389 1.41790014974971 2141.11017782132
-864.948434115915 2.2769276046369 2140.82249816331
-865.140521101655 3.13684204109396 2141.29793013643
-864.388326338582 3.99277628688256 2139.43618276714
-864.781630135769 4.85364529807569 2140.40964382496
-864.121771911417 5.70833857785607 2138.77643740874
-864.66120648872 6.57083469088786 2140.11158483931
-864.362640322546 7.42720184314709 2139.37260764653
-864.909968992592 8.29108462349764 2140.72729364226
-864.668253819313 9.14770716570446 2140.12902759461
-865.04431808219 10.0109989282835 2141.05981930769
-864.30482471504 10.8610195261028 2139.22950899647
-864.617668946388 11.7238401767081 2140.00382564065
-864.169945829801 12.5762138790279 2138.89567204081
-864.921892814924 13.4463485173819 2140.75680613816
-866.351362163425 14.3291830960478 2144.29486692999
-866.578104535714 15.1937701821459 2144.85607399476
-864.091374533874 16.0085367661728 2138.70120125921
-864.765091098804 16.8800541711878 2140.368708272
-864.604327873408 17.7357922403979 2139.97080532631
-865.11115452347 18.6055684777725 2141.22524530483
-864.365545397387 19.4481719243855 2139.37979795908
-864.70163090639 20.3147066237189 2140.21163878404
-864.545182051022 21.1698485052714 2139.82441427888
-865.036363811262 22.0411812311522 2141.04013179629
-864.02424035942 22.8736921548608 2138.5350383466
-864.648670378878 23.7491431505405 2140.08055687864
-863.648266477905 24.5795916541544 2137.60447033524
-864.57865579513 25.4649213441854 2139.90726470286
-863.951405026108 26.3046741150085 2138.35476457066
-864.693622275355 27.1862371972924 2140.19181672665
-864.400722347225 28.0357022131453 2139.46686396517
-864.958204330122 28.9130110786186 2140.84668029205
-864.215313991106 29.7466681385474 2139.00796218042
-864.925757951598 30.6303173676968 2140.76637268713
-863.702751286799 31.4449865748545 2137.73932496944
-864.57868541307 32.3357275363475 2139.90733800983
-864.316903658285 33.1845273695398 2139.2594054301
-864.917292488388 34.0667656882077 2140.74541993043
-864.260538144763 34.8994325266586 2139.1198958886
-864.765651539909 35.7788657439563 2140.37009541241
-864.156742638784 36.6121042283573 2138.8629929963
-865.006306634383 37.5073735284451 2140.96573767295
-864.038809944063 38.3237364552304 2138.57109933401
-864.607960820645 39.2078604244249 2139.97979718625
-862.278529298307 39.9587921391658 2134.21425184938
-864.269801089865 40.9096133602737 2139.14282248224
-863.987720548227 41.7545248882853 2138.44464864203
-864.876245587249 42.6566114986784 2140.64382528505
-864.498042625811 43.4967286849342 2139.70774010726
-864.846927281607 44.373399748193 2140.57125993219
-862.313344673668 45.1000075118148 2134.30042292723
-864.444427778646 46.0701829747909 2139.5750387039
-864.058557445512 46.9079521692308 2138.61997611524
-864.547919336854 47.7933387170196 2139.83118929906
-863.85823876811 48.6133472653945 2138.1241699903
-864.790125648534 49.5248496071776 2140.43067095692
-864.084623801776 50.3428067643242 2138.68449261094
-864.804030861142 51.2437949665999 2140.46508756583
-863.695889858458 52.0361060047388 2137.72234233836
-864.645240760419 52.9522194487667 2140.07206827508
-864.190898308663 53.7828602573632 2138.94753124579
-864.669005482952 54.6715556106512 2140.1308880274
-864.116650523278 55.4950228339547 2138.76376152829
-864.849167036635 56.4011856295192 2140.57680352041
-863.680129366558 57.1829048361194 2137.68333375205
-864.474896939143 58.0942727129309 2139.65045252248
-863.80821987757 58.9075561155517 2138.00036889191
-864.470583907342 59.8114694287448 2139.63977739417
-863.719415209508 60.6174942405695 2137.78056962547
-864.517965076432 61.5323283571568 2139.75704990289
-862.705094440833 62.2602862268052 2135.27003762577
-864.519219552513 63.2500008310516 2139.76015484014
-863.830674219014 64.0577330504899 2138.05594533722
-864.56165104874 64.9707726933572 2139.86517647862
-864.046711423324 65.790397812618 2138.59065618145
-864.532019832829 66.6861545600979 2139.79183664567
-864.081988267305 67.5097983854358 2138.67796943422
-864.725880103664 68.4191018480371 2140.27165765341
-863.85897917944 69.2086463786439 2138.12600257266
-864.566305418377 70.1241526656703 2139.87669644773
-863.548807055162 70.8994519486949 2137.35829962556
-864.254624947663 71.8159300613993 2139.10526021219
-863.810020418503 72.6370723846106 2138.0048253871
-864.453264933061 73.5498883609028 2139.59691142862
-863.901289810918 74.3611026670969 2138.23072506038
-864.452560770706 75.2672792008472 2139.59516856563
-864.112670224789 76.096072906235 2138.75390994383
-864.740900810966 77.0104083775887 2140.30883520859
-864.242759244401 77.8245628220212 2139.07589156604
-864.757093830867 78.7299062467681 2140.34891433926
-862.546050681833 79.3854381867374 2134.87639050875
-864.540427237957 80.4278056342466 2139.81264570358
-864.125044960358 81.2475628384823 2138.78453848915
-864.616034271303 82.1526148552047 2139.99977967784
-863.751904706017 82.9285378247013 2137.86098395115
-864.537467975113 83.8627692178101 2139.80532127101
-863.567440688286 84.6265197346314 2137.40441948593
-864.458529706683 85.572574575849 2139.60994220059
-863.591916338301 86.344659127689 2137.46499884551
-864.484509170798 87.2926605030775 2139.67424363068
-863.570442960034 88.0582103559096 2137.41185036927
-864.61485171883 89.023595226824 2139.99685275776
-862.244167867431 89.6360334169367 2134.12920432355
-864.170666801582 90.6947511826964 2138.89745650859
-863.837962207185 91.5179486694506 2138.07398374093
-864.437004708566 92.4401232041441 2139.55666596073
-863.553750783153 93.2035033804977 2137.37053578172
-864.44607006801 94.1585304811057 2139.57910351271
-863.597453895753 94.9239721335418 2137.47870478117
-864.491903916201 95.8810517831859 2139.69254626781
-862.558843354428 96.5234996715164 2134.90805348451
-866.426557100651 97.8169973261422 2144.48098093056
-862.021456674857 98.1759848870296 2133.5779747787
-864.092241420157 99.2701948731087 2138.70334687805
-862.402147992651 99.9327190758943 2134.52021885459
-864.285773968983 101.009548014805 2139.18235674536
-863.778959308573 101.808372547294 2137.92794644226
-864.495479852945 102.751592476749 2139.70139702184
-863.316524569527 103.469061909509 2136.78338029908
-864.241223083425 104.438403082232 2139.07208943421
-863.802770498537 105.2434985901 2137.9868812055
-864.458231347077 106.182089255954 2139.60920373466
-861.982953729924 106.734321076255 2133.48267664588
-864.368019920018 107.88829130529 2139.38592261751
-863.77101037877 108.671822382988 2137.9082721506
-864.115460749593 109.573548509075 2138.76081673508
-863.769450050468 110.387719658599 2137.90441020254
-864.31090137326 111.315500528956 2139.24454925335
-863.982416049829 112.131452908302 2138.43151954778
-864.480297350567 113.054823070685 2139.6638190098
-863.30796394211 113.759096260307 2136.76219200271
-864.344643162832 114.754318862377 2139.32806311313
-862.172611631242 115.322410627395 2133.95209642408
-863.973133334358 116.421493780553 2138.40854402076
-861.997615024213 117.011576835634 2133.51896462263
-864.078728099181 118.152430851248 2138.66990023496
-862.270151163028 118.76168701282 2134.19351523689
-864.341741282031 119.905625339413 2139.3208807061
-861.931703065934 120.42751451682 2133.35582680121
-864.00845934408 121.575959306582 2138.495978963
-861.988374220759 122.147987536799 2133.49609283149
-864.18107730736 123.317160027931 2138.92322341458
-862.114302045181 123.878637345557 2133.80777513419
-864.214616124582 125.038923975171 2139.00623490016
-862.199540492858 125.603859964623 2134.01874769544
-864.237427138814 126.759247722839 2139.0626941416
-861.936545833063 127.277999380478 2133.36781307047
-864.182209458324 128.468062478495 2138.92602558655
-862.187753335869 129.02804512367 2133.98957345814
-864.161269401683 130.181821589193 2138.87419712764
-861.926894011032 130.701439911676 2133.34392397265
-864.295263087611 131.919145347103 2139.20584313813
-861.750023111025 132.38670093161 2132.90615313329
-863.576827210533 133.525199905352 2137.42765194375
-862.074167297922 134.149223195007 2133.70843814889
-864.187853051449 135.336600822495 2138.9399939697
-861.896687753654 135.83397809204 2133.26916086212
-863.941646549875 137.014479214931 2138.33061149443
-862.141580265296 137.585432297172 2133.87529109819
-864.237348017742 138.778398364215 2139.06249831008
-861.906632091904 139.260330567244 2133.29377396299
-863.982036270164 140.453916587983 2138.43057956013
-861.957305429882 140.981011284917 2133.41919487564
-864.02650112483 142.177749329972 2138.54063393735
-861.985509952901 142.698173732686 2133.48900351977
-862.612033325117 143.658789155463 2135.0397032817
-861.928754639408 144.401214703924 2133.34852918948
-864.111531871237 145.625287780384 2138.75109241992
-862.386203735798 146.191197784567 2134.48075543406
-864.253122504137 147.366204005916 2139.10154153397
-861.70202020207 147.787201514298 2132.78734176441
-862.668101575174 148.809843156613 2135.17847707031
-861.822689441472 149.520122887899 2133.08600861246
-862.601148353449 150.512066216301 2135.01276203142
-861.588867355453 151.191317724914 2132.50727864132
-862.314636213821 152.175277009828 2134.30361960129
-861.843777368152 152.94831699873 2133.13820306255
-863.803814040126 154.154238588225 2137.98946406157
-861.489624635298 154.59703092613 2132.26164428937
-862.425993819094 155.621777565603 2134.57923934612
-861.710665044195 156.348700616557 2132.8087384995
-863.714804517649 157.570323998341 2137.76915776266
-861.924229576209 158.099877335776 2133.33732926504
-863.861255823118 159.313317567251 2138.13163746349
-861.767631609706 159.783269564796 2132.94973569688
-863.626146788213 160.985767626543 2137.54972218208
-861.891011296783 161.518507407057 2133.25511113834
-862.578405843976 162.504188888079 2134.95647234521
-861.647506232535 163.184752331735 2132.65241495508
-862.477455817827 164.198697269482 2134.70661226264
-861.541941190227 164.876427775029 2132.39113230669
-863.496368001616 166.108229089956 2137.22850841352
-862.047563557533 166.685863198773 2133.6425915808
-862.6623986683 167.661695036832 2135.16436188048
-861.783172820816 168.346887846224 2132.98820154418
-862.552131130956 169.35393919863 2134.89144014844
-861.795247456218 170.061417927646 2133.01808731553
-862.779859992611 171.112779117455 2135.45508886006
-861.878339879984 171.79015129939 2133.22374828121
-862.778817922625 172.826697890547 2135.45250964634
-861.548462825986 173.43608102696 2132.40727392162
-862.061853776885 174.395780932362 2133.67796111485
-861.949541113481 175.229298932862 2133.39997751819
-862.599463681991 176.21830894473 2135.00859232325
-861.694796791961 176.88948266814 2132.76946319701
-862.331240986753 177.876750615053 2134.34471785647
-861.583648223924 178.578416931266 2132.49436083749
-863.471072398998 179.827369292282 2137.16589960003
-861.678600935458 180.310037144892 2132.7293770455
-862.347679305825 181.306679176447 2134.3854041239
-861.685898102752 182.023518195255 2132.74743816834
-862.738112647774 183.102811489925 2135.35176055569
-862.001875461367 183.802847469074 2133.52950957462
-864.193424097105 185.128614732847 2138.95378279156
-861.641184163519 185.437803272633 2132.63676728518
-862.12821863083 186.399036656647 2133.84221989238
-861.465490021738 187.111507510286 2132.20190902463
-862.050106546804 188.094825874465 2133.64888570011
-861.680574351702 188.870167636181 2132.7342614221
-862.45713271067 189.897123191253 2134.65631080729
-861.22864107182 190.4821548492 2131.61568730245
-861.881478276676 191.482717377301 2133.2315160856
-861.307108157486 192.210711323938 2131.8099001546
-861.81330661318 193.179779011543 2133.06278529751
-861.308292561265 193.9221795158 2131.81283165683
-861.995966524655 194.933293261975 2133.51488444305
-861.378262430043 195.649276010414 2131.98601315917
-862.056071897069 196.659575125894 2133.66365046013
-861.446763548413 197.376314007365 2132.15555937669
-862.20738504236 198.407084119625 2134.03816363679
-861.317337821926 199.057881588819 2131.83521946257
-862.078527344353 200.090166137807 2133.71922964249
-861.536365031808 200.820157671438 2132.37733083029
-861.987793218779 201.781660440135 2133.49465480113
-861.421235275557 202.504749722903 2132.09237468416
-862.091354371057 203.51866256875 2133.75097764765
-861.433209259387 204.219016649239 2132.12201133412
-862.37865736586 205.299818197092 2134.46207751304
-861.386765191266 205.919365989289 2132.00705823169
-862.011080057056 206.924912050774 2133.5522917484
-861.681348900548 207.701732934861 2132.73617849777
-862.120652098155 208.66403254481 2133.82349206683
-861.359901889164 209.335556991715 2131.94056922582
-861.858327764651 210.312837334339 2133.17421655764
-861.457224166013 211.070708909219 2132.18145031379
-861.915609816583 212.039225910418 2133.31599461132
-861.395153516735 212.766877063144 2132.02782006578
-862.252931113382 213.83529071341 2134.1508941184
-861.384276960642 214.475545365412 2132.00089964479
-861.87319945202 215.453444981565 2133.21102527554
-861.244640276557 216.151854729887 2131.65528672375
-861.975745443116 217.19160965199 2133.46483550997
-861.189343037052 217.848943997657 2131.51842125323
-861.807874626959 218.861507746849 2133.04934065983
-861.198956147417 219.562362412118 2131.54221453631
-861.767496312824 220.563369622283 2132.94940082535
-861.383857994197 221.320857079041 2131.99986266645
-862.078171043504 222.355618083064 2133.71834776694
-861.305087356811 223.011815546424 2131.80489849742
-862.058326438844 224.063193576742 2133.66923064684
-861.105459673077 224.670928220437 2131.31080264183
-861.62164123942 225.661518306466 2132.58839685066
-861.367441856567 226.450603355543 2131.95923130002
-862.201281640945 227.52630604235 2134.02305718818
-861.372481099957 228.163259560598 2131.97170386508
-862.179046684183 229.2333723081 2133.96802373902
-861.210753766703 229.831430770135 2131.57141466871
-861.828797778176 230.852487255319 2133.10112727633
-861.411620639488 231.596445305124 2132.06857762482
-861.83750562163 232.567075061021 2133.12267994519
-861.321279237644 233.283386076848 2131.8449748088
-861.759486518985 234.258121873645 2132.92957588992
-861.195035544635 234.960172641189 2131.53251070391
-861.868067724592 235.999954275314 2133.19832380444
-861.330798010413 236.708461357979 2131.86853459814
-861.946630479597 237.733938720175 2133.39277344653
-861.340750136878 238.422464736291 2131.89316697552
-861.805040344791 239.407077464862 2133.04232556529
-861.10372243602 240.067651996933 2131.30650282923
-861.512180434515 241.037330737208 2132.31747185148
-861.020687716637 241.755135174506 2131.10098468691
-861.744859243536 242.814501773994 2132.89337211275
-861.179325265542 243.510624662937 2131.49362639866
-861.793664543566 244.540421871296 2133.01416946924
-861.236656073003 245.237897313567 2131.6355251265
-861.908712893684 246.285464467521 2133.29892412812
-861.170566382204 246.930008466768 2131.47194740166
-861.678574088341 247.931643160692 2132.72931059655
-861.234221120158 248.659317392521 2131.62949840673
-861.462704366796 249.581041404453 2132.19501428671
-861.28370599901 250.38475991456 2131.75197777982
-861.509379441586 251.306167390011 2132.3105391507
-861.181453732456 252.065985923924 2131.49889453914
-861.999773266718 253.16179515556 2133.52430646028
-860.996193765269 253.722344540471 2131.04036002989
-861.415850002138 254.70171956727 2132.07904566472
-861.277640144786 255.516425442292 2131.73696426377
-861.554008321343 256.454261997443 2132.42099950427
-860.925520786732 257.122405113377 2130.86543826982
-861.251347327547 258.075261229608 2131.67188725748
-861.081827251977 258.879841258323 2131.25231034705
-861.537608523569 259.872699299182 2132.3804085804
-861.053664127783 260.58207215471 2131.18260416861
-861.477623101055 261.56614569686 2132.23193944974
-861.02832325124 262.285050853447 2131.11988329822
-861.396394811273 263.252861672623 2132.03089237758
-861.076157738425 264.010364801931 2131.23827780859
-861.632186589964 265.036769785982 2132.61449750916
-861.073548184578 265.720302199419 2131.23181893617
-861.419162604203 266.682668076469 2132.08724464254
-861.120486822851 267.445617837288 2131.34799614268
-861.625656864863 268.458430055841 2132.5983358724
-861.210350396654 269.184536834403 2131.5704162928
-861.454621095066 270.116634695313 2132.17500748712
-861.077416560173 270.853731505414 2131.24139350175
-861.345439845411 271.793677639798 2131.90477441146
-861.012554604169 272.543945360403 2131.08085452716
-861.485942630218 273.54956948587 2132.252531007
-861.124520105691 274.290225562808 2131.35797886801
-861.491339167487 275.262850606621 2132.26588790545
-861.191907558448 276.022662843795 2131.52476866642
-861.43373462332 276.955897960642 2132.12331165548
-861.047182508886 277.68696179265 2131.16656159889
-861.465391825804 278.677591928495 2132.20166598117
-861.044337209871 279.396723651397 2131.1595192367
-861.49896919414 280.400036660354 2132.28477288411
-861.106236192732 281.127611439866 2131.31272459542
-861.54143633813 282.125525911109 2132.3898827539
-861.093592971697 282.834261098382 2131.28143152525
-861.278871794312 283.750690377506 2131.74001270332
-861.349902876098 284.629735036354 2131.91582080003
-861.728696273095 285.610925403037 2132.8533673571
-861.210350396654 286.294629752528 2131.5704162928
-861.499188442451 287.24644058383 2132.28531554272
-861.42094567495 288.076066237508 2132.0916578975
-861.561766337949 288.979013163909 2132.44020126918
-861.016541161081 289.651449674617 2131.09072160176
-861.416607742408 290.641744158009 2132.0809211377
-861.173401705234 291.415154444988 2131.47896507242
-861.489833724223 292.378015140825 2132.26216180262
-861.002891972711 293.068052248452 2131.05693867507
-861.352375688064 294.042655200223 2131.92194122442
-861.277549518231 294.872682947668 2131.73673995518
-861.503976828767 295.806000427504 2132.29716721474
-861.014581251015 296.493271738573 2131.08587065412
-861.246274271346 297.428596342455 2131.65933100277
-859.635509696671 297.726264280592 2127.67254878005
-859.743713937686 298.617787476475 2127.94036367447
-861.060833247062 299.930623246591 2131.20034836149
-861.351315544832 300.887450712727 2131.91931727785
-861.147393738674 301.671658804231 2131.4145930963
-861.343914338503 302.596139971452 2131.90099864936
-860.806749009611 303.2625337538 2130.57146780571
-860.994698742541 304.184038936715 2131.03665971879
-860.696008199126 304.933507148277 2130.29737468154
-860.851957732962 305.843906686651 2130.68336332254
-860.98224015003 306.745471534765 2131.00582362025
-861.206146865384 307.680744116165 2131.56001218782
-860.897702748834 308.425741207225 2130.79658620993
-861.09132449046 309.350494660203 2131.27581683716
-860.585014777452 310.023484328557 2130.02265632274
-860.714425893535 310.925116349197 2130.34296007485
-859.299270269949 311.267510711269 2126.84032699537
-859.462688312731 312.180474863837 2127.24480084467
-859.547476295929 313.065124978846 2127.45465846721
-859.565888828343 313.925702286572 2127.50023108413
-860.86857796939 315.256628048165 2130.72449985122
-861.080047075432 316.189444850831 2131.24790425549
-859.548887250063 316.481055639027 2127.45815070124
-859.590019547561 317.350095369232 2127.55995671002
-860.985649252084 318.720626177109 2131.01426144393
-861.160724014607 319.64089089592 2131.44758668701
-860.849537713522 320.380532703601 2130.67737356424
-861.096135764238 321.327699761094 2131.28772515764
-860.789194194538 322.068247345012 2130.52801811371
-860.875666358602 322.955773483267 2130.74204423017
-859.717575985272 323.375339972137 2127.87566997207
-859.814365033033 324.265864245637 2128.11523127174
-860.611070253016 325.421238795198 2130.08714588777
-860.779551264954 326.34002290299 2130.50415102547
-860.972926363557 327.268604352656 2130.9827711898
-861.141613574477 328.188161232891 2131.40028668788
-859.3595125749 328.362653934983 2126.98943193237
-859.497085731074 329.269023591537 2127.3299374426
-858.964861895453 329.9184053432 2126.01263722398
-859.066944958061 330.810989700321 2126.2653016702
-861.021127385504 332.418826336651 2131.10207290554
-861.181651686826 333.336276911248 2131.4993844934
-859.569218289867 333.566029146372 2127.50847179057
-859.620762782894 334.439957187832 2127.63604888763
-859.377236229357 335.198895584027 2127.03329951651
-859.594683801487 336.137610390515 2127.5715011436
-861.059729030109 337.565859605464 2131.19761532862
-861.232135150768 338.488975187125 2131.62433545131
-859.135149424143 338.518242736753 2126.43411364754
-859.306336942763 339.439307650676 2126.85781762435
-858.945300847119 340.149947405808 2125.96422193041
-859.193304724469 341.101660101577 2126.57805306684
-858.837402888777 341.813513697954 2125.69716511221
-859.021024440783 342.739924093758 2126.15164440158
-858.86124317551 343.529344231405 2125.75617189248
-859.10729136978 344.481174688141 2126.36516254343
-858.765266734594 345.19710687127 2125.51862186533
-858.906663938716 346.107160400926 2125.86859222636
-858.847426748336 346.936447412849 2125.72197503522
-859.15461025019 347.91399851276 2126.48228088225
-859.356083607273 348.849247657762 2126.98094493968
-859.410057367933 349.724874187001 2127.11453468511
-858.729532034623 350.300984206864 2125.43017537922
-858.990407591938 351.260702415422 2126.07586504151
-858.9844010015 352.111539627969 2126.06099820849
-859.283692822611 353.087814918292 2126.80177146025
-858.786989280084 353.736812064271 2125.5723870521
-859.095953754004 354.717479670534 2126.33710095967
-860.918693874334 356.325297114371 2130.84854106869
-861.025419276048 357.224790588597 2131.1126957074
-858.767587272489 357.141132588426 2125.52436539817
-859.127831290919 358.144385481073 2126.41600063221
-859.203641998417 359.029499902484 2126.60363871768
-859.46937938814 359.994316961927 2127.26136183745
-860.749702190379 361.385635510816 2130.4302719734
-860.91999504285 362.312349154028 2130.85176157378
-858.786431405786 362.267550133276 2125.57100626476
-859.117714647385 363.260723404557 2126.3909610608
-858.70265100946 363.938235616706 2125.36364250724
-859.202392831772 365.00354786229 2126.60054692174
-858.71386321109 365.649037006555 2125.39139368009
-859.130683606894 366.679962098838 2126.42306036198
-858.760539751749 367.375054480629 2125.50692217224
-859.099982103358 368.373675108928 2126.3470714742
-858.59075914227 369.008227690589 2125.08670041775
-859.0348617533 370.052439280027 2126.18589295188
-858.747619597479 370.781760204242 2125.47494366826
-859.102310646226 371.788315854846 2126.35283482004
-858.52594238937 372.391722603891 2124.92627332477
-859.093493505531 373.491303743496 2126.33101163102
-858.598352518526 374.128950917643 2125.10549468349
-858.93306105816 375.128040549115 2125.93392738967
-858.68302465725 375.871834409769 2125.3150655809
-858.859779496421 376.802375059374 2125.75254915961
-858.63838231403 377.558192525482 2125.20457190409
-859.079035099247 378.605342650703 2126.2952258197
-858.387186606745 379.15313778757 2124.58284071136
-858.861880585706 380.215983798473 2125.75774953808
-858.349869146483 380.841980744378 2124.49047675606
-858.894009236491 381.936614372985 2125.83727073926
-858.623381264274 382.669205199681 2125.16744300305
-858.937392511116 383.662399724429 2125.94464811194
-858.502856140955 384.321120031123 2124.86913285482
-858.925853119886 385.36371598117 2125.91608711641
-858.490029008528 386.020982475738 2124.83738458798
-858.815720786241 387.020556021789 2125.64350002527
-858.288233479591 387.635448672266 2124.33792312723
-858.687374054547 388.668714046457 2125.32583071697
-858.685472288364 389.52084974337 2125.32112368049
-858.930272337594 390.485136740455 2125.92702506406
-858.258511935461 391.032314754156 2124.2643597241
-858.694230793519 392.083838405141 2125.34280174146
-858.254639647192 392.735687530447 2124.25477547431
-858.767587272489 393.823489452877 2125.52436539817
-858.52609944293 394.565583373047 2124.92666204597
-858.842243882935 395.564030794757 2125.7091469932
-858.015462048443 396.035564014592 2123.66279014401
-858.577124919897 397.147700507262 2125.0529545332
-857.822153558096 397.650616099883 2123.1843348409
-858.547251941532 398.839600696081 2124.97901631718
-858.422160002164 399.63422394864 2124.66940290258
-858.915611933017 400.717173184052 2125.89073928942
-858.350259172387 401.306077876993 2124.49144210405
-858.693581104625 402.319596363175 2125.34119370502
-856.416749584987 402.103586185259 2119.70583794332
-858.590025013446 403.97688108458 2125.08488338515
-857.959932185182 404.532690631294 2123.52534890948
-858.672640202758 405.721720016946 2125.28936315411
-856.06507724613 405.340043329179 2118.8354183607
-858.436619634537 407.315699184915 2124.70519174857
-858.201474032851 408.056641718605 2124.1231859612
-858.531298774834 409.066309748044 2124.93953084401
-856.299493720018 408.853542974391 2119.41561949345
-858.443126628032 410.729809681124 2124.72129712263
-856.162273144753 410.489004897976 2119.07598665159
-858.640071936519 412.52994272173 2125.2087538665
-856.16290358458 412.190288442864 2119.07754704492
-858.459463769847 414.148714271072 2124.76173296755
-858.087793130812 414.821811065177 2123.84181585507
-858.577344804607 415.911362078209 2125.05349876695
-856.065549457511 415.544994082141 2118.83658712488
-858.574174810919 417.615598343466 2125.04565275725
-855.990272558211 417.209092032037 2118.65027026106
-858.150519761345 419.114460175698 2123.99706971367
-858.028279177749 419.907102422081 2123.69451365226
-858.633473159318 421.056220777873 2125.1924213198
-856.008254369281 420.619204414397 2118.69477680524
-858.113981722076 422.506330428956 2123.90663489302
-856.001298902589 422.316446898002 2118.67756142107
-858.281441071864 424.293972037109 2124.32111132816
-856.105430522216 424.068688325262 2118.93529622384
-858.270150704105 425.993558461716 2124.29316668735
-858.277324757545 426.849710281522 2124.31092309271
-858.668913069999 427.897440151417 2125.28013817682
-855.988895778174 427.41223440498 2118.64686261089
-857.922878683036 429.23014938479 2123.43363827345
-856.114750353913 429.17596170163 2118.95836361675
-858.345756412159 431.147038759845 2124.4802973814
-855.920464494481 430.779064534242 2118.47748924026
-858.432044463801 432.895870738398 2124.69386780363
-855.809372623703 432.423431637731 2118.20252721138
-856.096082129459 433.418724501636 2118.91215813982
-855.871296875129 434.155122658223 2118.35579511199
-858.003984541261 436.089283900405 2123.63438231687
-855.843814592484 435.841529136848 2118.28777407551
-856.278391281169 436.913444234768 2119.36338912448
-855.899203942117 437.570193735501 2118.42486752661
-858.161119855853 439.579051996834 2124.02330586823
-855.764830616983 439.201687079801 2118.09228187612
-856.440387216059 440.399167306778 2119.76434313323
-855.971082576152 441.008141349739 2118.60277338875
-858.263628941414 443.041870394243 2124.27702475826
-855.703076084067 442.570128414959 2117.93943404356
-856.346547990526 443.753605526304 2119.53208289978
-855.893735409807 444.369184038355 2118.41133243418
-856.637290569152 445.606190340514 2120.25169603386
-855.809372623703 446.025662850163 2118.20252721138
-857.893169274424 447.963893095351 2123.36010490677
-855.630868192696 447.632555225423 2117.76071324091
-856.048636421272 448.701492328056 2118.79472589124
-855.745649721222 449.392756725266 2118.04480749318
-858.156629476709 451.51134806493 2124.01219178984
-855.927371157522 451.188700632795 2118.49458383116
-858.285191616075 453.284187605506 2124.33039425083
-855.779828169161 452.81114586272 2118.12940212035
-858.026877819633 454.85244946233 2123.69104516921
-855.938735696888 454.595763098798 2118.52271205313
-858.231077114339 456.665788681762 2124.19645615901
-855.880359712379 456.265179091561 2118.37822642132
-858.331220081581 458.424364056017 2124.44431870069
-855.661777758875 457.848639904842 2117.83721710181
-855.993863535734 458.876655522553 2118.65915824232
-855.598815745273 459.51481068479 2117.68138064968
-856.008749831496 460.585310703256 2118.69600311725
-855.670812716128 461.253481577197 2117.85957940573
-857.823930538541 463.266270793423 2123.18873302184
-855.705448486559 462.972224586741 2117.94530594578
-856.358510842777 464.176243424123 2119.56169199812
-855.809372623703 464.728730767257 2118.20252721138
-856.332487855493 465.863456256002 2119.4972828444
-855.775534086841 466.410567156095 2118.11877389365
-856.236962476607 467.512616792447 2119.26084923495
-855.551284981935 467.988114159341 2117.56373788221
-855.645117020835 468.889416739253 2117.79598032812
-855.645703535799 469.73971501267 2117.79743200359
-856.225321723561 470.908471419415 2119.23203736012
-855.503142319893 471.361121032609 2117.4445806123
-856.01865595783 472.495503673868 2118.72052164031
-855.583081311886 473.104994762012 2117.64243656046
-856.070369300022 474.224845256656 2118.84851665372
-855.631685600493 474.831796972162 2117.76273639621
-855.943711980724 475.855228544769 2118.53502878784
-855.656230072653 476.545392543759 2117.82348609657
-855.951358578409 477.560040603182 2118.55395478124
-855.416279042271 478.11125320228 2117.22958645581
-855.644285086095 479.088666326769 2117.79392121738
-855.456762906088 479.83345889181 2117.32978753492
-856.120127868889 481.055994464596 2118.97167343337
-855.30153888493 481.445662293265 2116.94559460082
-855.735515311926 482.540011893403 2118.01972394997
-855.809372623703 483.431798684352 2118.20252721138
-856.189855755427 484.497244387144 2119.14425600865
-855.457226675334 484.932456851416 2117.33093540408
-855.949647623862 486.061873976362 2118.54972002013
-855.672977369635 486.754767219247 2117.86493711117
-855.9941889868 487.787813440158 2118.65996376197
-855.470277860234 488.339065578092 2117.36323822025
-855.882592201752 489.424644444664 2118.38375202642
-853.718435805175 489.035163853456 2113.02727698051
-853.906344857832 489.991052746131 2113.49236820638
-855.50906727822 491.760572778906 2117.45924539876
-855.83158869078 492.796124869676 2118.25751390693
-855.662663530561 493.54884983859 2117.83940946367
-855.884000393346 494.526731204315 2118.38723742292
-855.535308388239 495.175125406274 2117.52419442519
-855.766260288383 496.158894638588 2118.09582043701
-855.497675913271 496.853003751187 2117.43105078113
-855.850363731206 497.908016741808 2118.30398376266
-855.529950342216 498.571471742706 2117.51093279592
-855.847169477864 499.606512415664 2118.29607770821
-855.518448630083 500.264469875227 2117.48246505943
-855.605194734487 501.16513129117 2117.69716920202
-855.540820376385 501.977297110861 2117.53783707458
-855.762054439445 502.95719572675 2118.08541059559
-855.51619417791 503.662544442974 2117.47688509449
-855.737815593222 504.643086560684 2118.02541734596
-855.336426126443 505.256050030002 2117.03194355364
-855.501897928504 506.203629943551 2117.44150063553
-855.511578801071 507.059201781475 2117.46546163595
-855.731427154543 508.039567277024 2118.00960540538
-855.379202941402 508.680167260103 2117.13781988597
-855.478792500609 509.589202619877 2117.3843126947
-855.409680553832 510.397776616428 2117.21325462382
-855.693902918201 511.417388480983 2117.91672966132
-853.446158329208 510.921784489651 2112.35336657927
-853.592040691682 511.857054842026 2112.71443809677
-855.212818649595 513.678502309387 2116.72600431271
-855.488014528225 514.693617301857 2117.40713801402
-853.432975937253 514.305007947222 2112.32073901424
-853.508180956352 515.198182314008 2112.50687796832
-855.527830187698 517.267151214076 2117.50568522934
-855.682859622604 518.210898509053 2117.88939654557
-855.393827458747 518.885584128125 2117.17401683659
-855.552082786669 519.831466357968 2117.56571251821
-855.369235464831 520.570070977821 2117.11314951575
-855.576617604251 521.546190131994 2117.62643832266
-855.399152407198 522.287742058249 2117.1871965465
-855.579128673314 523.247542305099 2117.63265343669
-855.366740703869 523.967351694156 2117.10697476569
-855.594737424966 524.956940643022 2117.6712864527
-855.463056960177 525.725942478442 2117.34536586545
-855.642424831318 526.686146847708 2117.78931692524
-855.440323649445 527.41151738621 2117.28909894692
-855.737815593221 528.445000859848 2118.02541734596
-855.503142319892 529.149917986035 2117.4445806123
-855.727785190135 530.138923578397 2118.00059122715
-855.556384020426 530.882625575261 2117.57635844534
-855.704512347788 531.824576199813 2117.94298892101
-855.393827458747 532.481210667141 2117.17401683659
-855.511578801071 533.404354308461 2117.46546163595
-855.14776884074 534.027004054172 2116.56500038599
-855.253133169893 534.942389399908 2116.8257862519
-855.267355218158 535.800886008722 2116.86098705659
-855.721724094 536.935587682627 2117.98558948779
-855.37615363696 537.568463354732 2117.13027259264
-855.599887408813 538.559002111629 2117.68403311002
-855.443056175433 539.310059950041 2117.29586218607
-855.620131276456 540.271647579616 2117.73413844068
-855.538166040226 541.069761599916 2117.53126736205
-855.680620791313 542.00986610303 2117.88385524368
-855.393827458746 542.677930571403 2117.17401683659
-855.638216905166 543.682945261171 2117.77890194254
-855.321072760877 544.331082394871 2116.99394264037
-855.476269970433 545.279659316223 2117.37806921343
-855.410575504141 546.08752902946 2117.21546970357
-855.560707355375 547.033264480996 2117.58705907484
-855.55416548393 547.878967636514 2117.57086737483
-855.647723760162 548.788859269868 2117.80243223436
-853.156132269124 548.038324970985 2111.6355268908
-853.24920505701 548.945707992093 2111.86589012451
-853.440686177228 549.916685585768 2112.33982252784
-853.479629738432 550.789604111822 2112.4362112242
-855.262833163108 552.789983713887 2116.84979457759
-855.46459552082 553.770187613497 2117.34917393667
-855.361879160217 554.55339087876 2117.09494202291
-855.480924457065 555.480384224828 2117.3895894721
-853.195767448671 554.844130545372 2111.73362740263
-853.331678696411 555.780193541877 2112.07001954515
-855.371967838772 557.958751407479 2117.11991237857
-855.493650309649 558.887950648909 2117.42108706253
-855.555380395348 559.778165618568 2117.5738743861
-855.68175002493 560.710860209842 2117.88665019495
-855.468670654126 561.421034634738 2117.35926024554
-853.282946449886 560.834232505018 2111.94940300244
-853.276216587057 561.677432269576 2111.93274600742
-853.315681818738 562.551072926328 2112.03042588352
-855.483551042031 564.830063383645 2117.39609049802
-855.615401315076 565.767063836144 2117.72243137545
-117.158040249067 77.5859555960928 289.976325192483
-115.281424532008 76.4577158374742 285.331538302277
-855.409069689742 568.179854527482 2117.21174268215
-855.459210582784 569.062950722571 2117.33584574733
-855.328424051426 569.825611454802 2117.01213772296
-855.424721884796 570.739523074552 2117.25048322435
-853.358882493588 570.208899869463 2112.1373513059
-853.462872759835 571.126193991462 2112.39473624677
-853.299177732295 571.864297306088 2111.98957683614
-853.334956863354 572.735957203363 2112.07813329305
-855.365293368303 574.948363926234 2117.10339248446
-855.523216281191 575.904369694632 2117.49426541001
-116.184077992161 78.3259373575114 287.565684014692
-853.125175932763 575.98504991555 2111.55890726965
-853.139288161724 576.842064803225 2111.59383626202
-853.208132180235 577.736168479658 2111.76423118717
-853.328130502908 578.665098061896 2112.06123745806
-853.401296515535 579.562461260918 2112.24232969402
-855.462421776205 581.812008829849 2117.34379372995
-855.589789036279 582.748554414397 2117.65903876092
-853.152204848294 581.935797622616 2111.62580618314
-853.250752034835 582.850614518553 2111.86971902899
-855.436428902759 585.193406623078 2117.2794591106
-855.486135950919 586.077228951244 2117.40248837203
-855.134316592472 586.685673088671 2116.53170490316
-853.51092975922 586.419765347693 2112.51368149416
-855.468670654126 588.614666827747 2117.35926024554
-116.025076854044 79.9475919215679 287.17214238806
-855.37561103118 590.250053252306 2117.12892959621
-855.494868866747 591.182173889306 2117.42410309718
-853.119278942421 590.388010631498 2111.54431170638
-853.19047880861 591.284821306081 2111.72053755915
-855.43914004735 593.692977994041 2117.28616942894
-853.19047880861 592.979897121479 2111.72053755915
-855.50842029602 595.440740946444 2117.45764406162
-855.575578803205 596.337391013457 2117.62386719985
-853.384144715515 595.657688638996 2112.19987749928
-853.510060570628 596.593432622265 2112.51153017691
-853.380317009991 597.350469896837 2112.19040359566
-853.507468001378 598.287326040577 2112.50511334284
-855.200688103741 600.323765659223 2116.69598015814
-855.321599924316 601.258296832975 2116.99524741567
-855.282844918572 602.080669961004 2116.89932541045
-855.423233311623 603.029252947679 2117.24679887646
-855.494868866747 603.929579349435 2117.42410309718
-855.620788219673 604.868423198664 2117.7357644322
-116.293567240543 82.3275352566331 287.836679413952
-855.459210582784 606.45378150252 2117.33584574733
-117.542426371397 83.4451656425253 290.927714230498
-116.132963635431 82.5599300540043 287.439171542328
-116.833445700943 83.1739682224328 289.17292549373
-853.174275599942 608.22402826691 2111.68043321039
-117.051603835494 83.5618276666341 289.712885824523
-118.538966392192 84.7413927406046 293.394237334871
-117.92960947598 84.4229226504197 291.886026042515
-118.205747094521 84.7380254252049 292.5694906319
-853.007001808144 612.34155777925 2111.26641604739
-853.223310826216 613.344408388019 2111.80179965429
-117.597338707256 84.6523310588449 291.063627031073
-116.131798646087 83.7127258570802 287.436288092519
-117.160183681261 84.5704133785696 289.981630373327
-853.160431379926 616.68923937936 2111.64616756343
-855.335375716327 619.111021164909 2117.02934369737
-855.540444370982 620.109326782899 2117.53690642855
-116.506935813462 84.5618158987375 288.364785163715
-118.316473490631 85.9927277495354 292.84354807924
-853.071123239231 620.861781565322 2111.42512215849
-853.129527930601 621.751765628793 2111.56967884228
-853.27315519439 622.704059694019 2111.92516879468
-853.410327142004 623.651921719484 2112.26468127888
-855.264052339909 625.856177644544 2116.85281214606
-855.404040942834 626.808353843879 2117.19929609678
-119.270115409761 87.5151967098389 295.203894656144
-853.216076435804 626.900221277286 2111.78389390969
-853.169708092445 627.713669427405 2111.66912823263
-853.31252780343 628.666407182952 2112.0226194217
-855.316794896112 630.992673859257 2116.98335455353
-855.505804247539 631.981949580757 2117.45116911442
-853.200811610868 631.126746312588 2111.74611214217
-853.292878534051 632.042489366813 2111.97398577338
-116.723522593199 86.5742198596214 288.900856254868
-118.541031573574 88.0400279081002 293.399348838158
-119.947247054279 89.2035720157769 296.879854287522
-117.159785563853 87.2469482670911 289.980644998164
-853.205574659351 636.215587039517 2111.75790110086
-853.322140113308 637.1501758888 2112.04641072351
-117.268212088051 87.6771655551322 290.24901006277
-117.217450407349 87.7556537571785 290.123370494206
-120.065913127969 90.0074454951339 297.17356312646
-118.53938937529 88.9808405755663 293.395284254775
-119.043229923639 89.4772998294546 294.642333372213
-119.042810226155 89.5952384951936 294.641294584488
-119.043212308539 89.7137956399489 294.64228977331
-115.812708701887 87.3942567251963 286.646512766573
-118.81841684263 89.7804468695708 294.085901470931
-853.210734195477 645.542572703593 2111.77067140089
-118.262092372929 89.5950394033844 292.70895008974
-119.21280217312 90.4337175528538 295.062039417607
-852.985753071136 647.914354721458 2111.21382357777
-853.178548235971 648.908324905642 2111.69100835565
-852.933712406729 649.569391148792 2111.08501841345
-853.074888983601 650.524330187993 2111.43444270288
-158.653891587248 121.141373238272 392.682161310931
-158.653891587248 121.298976013577 392.682161310931
-118.149835999797 90.4489308231768 292.431105816388
-118.988548582494 91.2092026649892 294.506992303617
-119.495837205613 91.7167626466123 295.762575705587
-117.928759959673 90.6311296951934 291.883923415873
-119.157513973221 91.693825208052 294.925196320887
-853.092989185715 657.317661265013 2111.47924227517
-118.482053455423 91.4094405008171 293.253372873284
-118.097051398557 91.229724304331 292.300459343797
-120.988607825596 93.5836326066455 299.457312642273
-118.761611363043 91.9790450619975 293.945302975204
-119.83723874629 92.9311452510823 296.607574170652
-119.382470324474 92.6970738690849 295.481982828466
-120.065123523772 93.3464042206236 297.171608787492
-119.89554183771 93.3336616412505 296.751879385739
-852.834896355432 664.743459990714 2110.84044010398
-853.076260184144 665.779015840726 2111.43783654332
-119.838416719357 93.6463255113362 296.610489756303
-119.667484081167 93.6316268667565 296.1874166307
-117.707390957456 92.2149155264253 291.336015908731
-119.949926510969 94.0909292274789 296.886486175552
-119.497378633156 93.8546480287221 295.766390872634
-120.871616589536 95.0540615146895 299.167749171935
-119.836863894853 94.3593695876428 296.606646380789
-119.439130844181 94.1648429919595 295.622222535902
-120.297845777542 94.9613477341905 297.747616578295
-121.166252798806 95.7672189472683 299.896999380041
-118.04050119674 93.4139500826116 292.160492682721
-853.035803030374 675.916052341605 2111.33770157389
-119.21475269053 94.5800697197526 295.066867117607
-119.268175166007 94.7409309070166 295.199092384337
